VERSION 0.7 
FIELDS x y z rgb 
SIZE 4 4 4 4 
TYPE F F F U 
COUNT 1 1 1 1 
WIDTH 937 
HEIGHT 1 
VIEWPOINT 0 0 0 1 0 0 0 
POINTS 937 
DATA ascii 
-95.56547733405438 -48.696145121663875 -801.5 8553857
-95.80619642053814 -47.962361531872325 -801 8619394
-96.1672750502638 -47.28345249234093 -800.25 8619394
-96.28763459350567 -46.4818831376416 -800 8685189
-96.04691550702191 -45.5070826557301 -800.5 8816775
-95.4451177908125 -44.368734457592126 -801.75 8882568
-94.96367961784497 -43.29602015525399 -802.75 8816775
-94.72296053136121 -42.33951056075996 -803.25 8619396
-94.8433200746031 -41.545472747938426 -803 8750726
-95.32475824757061 -40.90422330580366 -802 8685189
-95.92655596378003 -40.30493719928141 -800.75 8488324
-96.28763459350567 -39.59590199223887 -800 8554630
-96.1672750502638 -38.686735406127205 -800.25 8357251
-95.92655596378003 -37.73237768074111 -800.75 8488837
-95.56547733405438 -36.736056619742506 -801.5 8423044
-95.32475824757061 -35.79138230534213 -802 8423044
-95.20439870432874 -34.895126933878096 -802.25 8488580
-95.20439870432874 -34.044062701688475 -802.25 8554117
-95.20439870432874 -33.19299846949885 -802.25 8554117
-95.08403916108686 -32.30104683625069 -802.5 8422531
-94.96367961784497 -31.411247072110466 -802.75 8422017
-94.72296053136121 -30.48486364512757 -803.25 8816775
-94.60260098811933 -29.60044355375719 -803.5 8685189
-94.72296053136121 -28.79134265718009 -803.25 8553603
-95.08403916108686 -28.051105348072443 -802.5 8487810
-95.08403916108686 -27.201117050436793 -802.5 8224638
-94.72296053136121 -26.25106117525886 -803.25 8093052
-94.24152235839368 -25.275180982777954 -804.25 7961210
-93.76008418542615 -24.3079082667288 -805.25 8092539
-93.76008418542615 -23.46975524918681 -805.25 8026746
-94.1211628151518 -22.718758594539477 -804.5 7961464
-94.60260098811933 -21.989282518979238 -803.5 7961464
-94.8433200746031 -21.19739846327336 -803 8027257
-94.8433200746031 -20.349562034745645 -803 8027258
-94.48224144487745 -19.427480457970912 -803.75 8290174
-94.00080327190992 -18.488182040324954 -804.75 8422274
-93.51936509894239 -17.557491099110752 -805.75 8553860
-93.27864601245862 -16.6784487925025 -806.25 8619396
-93.15828646921675 -15.824154868643259 -806.5 8750982
-93.39900555570051 -15.03011894382944 -806 8619396
-93.63972464218428 -14.231779280799744 -805.5 8816264
-94.00080327190992 -13.446352720425393 -804.75 8882313
-94.24152235839368 -12.638329646409975 -804.25 8750982
-94.48224144487745 -11.826002834178679 -803.75 8619910
-94.60260098811933 -10.995383246522191 -803.5 8751496
-94.60260098811933 -10.149698687102418 -803.5 8751496
-94.48224144487745 -9.292176959581269 -803.75 8751750
-94.36188190163557 -8.436807101168057 -804 8882566
-94.36188190163557 -7.593274410856222 -804 8882566
-94.36188190163557 -6.749741720544387 -804 8948359
-94.48224144487745 -5.913742460118054 -803.75 8947846
-94.48224144487745 -5.0691338352522495 -803.75 8947848
-94.36188190163557 -4.219143649608884 -804 8816262
-94.24152235839368 -3.371305333073456 -804.25 9013641
-94.00080327190992 -2.5223891939763425 -804.75 8947848
-93.63972464218428 -1.675623035979451 -805.5 8816775
-93.39900555570051 -0.8363903078680603 -806 8685703
-93.15828646921675 -0.001461317972546332 -806.5 8620422
-93.03792692597486 0.8302379802533437 -806.75 8686216
-93.15828646921675 1.664085371571739 -806.5 8686216
-93.39900555570051 2.503310547652264 -806 8620423
-93.39900555570051 3.3382357615323452 -806 8685703
-93.51936509894239 4.178538760174556 -805.75 8816775
-93.76008418542615 5.865600364782792 -805.25 9079432
-94.00080327190992 6.720964559172854 -804.75 8947847
-94.24152235839368 7.580632491778793 -804.25 9013641
-94.36188190163557 8.433846705068634 -804 8882055
-94.36188190163557 9.27737939538047 -804 9013641
-94.00080327190992 10.082184105772562 -804.75 8882312
-93.63972464218428 10.880533208840841 -805.5 9014154
-93.15828646921675 11.657365508837453 -806.5 8882566
-92.7972078394911 12.441727462704131 -807.25 8948359
-92.67684829624922 13.254059938958576 -807.5 8882566
-92.55648875300733 14.064240546105083 -807.75 8948359
-92.43612920976545 14.872269284143652 -808 8619394
-92.43612920976545 15.69858702159198 -808 8093050
-92.31576966652356 16.503387955968638 -808.25 7698549
-92.0750505800398 17.283444283611725 -808.75 8750980
-91.83433149355604 18.059196873038935 -809.25 8487808
-91.71397195031416 18.85539033098384 -809.5 8290429
-91.95469103679793 19.726893543683442 -809 8159872
-92.31576966652356 20.62959697044043 -808.25 8488836
-92.55648875300733 21.510783594125755 -807.75 8686214
-92.67684829624922 22.367225611077505 -807.5 8817543
-92.67684829624922 23.19569521763377 -807.5 8751750
-92.55648875300733 23.992964610132645 -807.75 8751493
-92.55648875300733 24.82035828213494 -807.75 8816773
-92.55648875300733 25.647751954137238 -807.75 9079432
-92.67684829624922 26.50957364385883 -807.5 9144969
-92.55648875300733 27.30253929814183 -807.75 8947335
-92.43612920976545 28.09335308331689 -808 9078923
-92.19541012328169 28.84435917800281 -808.5 9013899
-92.19541012328169 29.6685250463432 -808.5 8948361
-92.0750505800398 30.452883224194444 -808.75 8882566
-91.95469103679793 31.235089532937753 -809 8750980
-91.83433149355604 32.01514397257312 -809.25 8882310
-91.4732528638304 32.706975554798454 -810 8816260
-91.3528933205885 33.48057438711001 -810.25 8882054
-91.4732528638304 34.342396076831605 -810 8882053
-91.59361240707227 35.20636963566113 -809.75 8882307
-91.3528933205885 35.930477366497826 -810.25 8816259
-90.39001697465345 36.359790357593255 -812.25 8882054
-89.06606199899275 36.62341509140059 -815 8882055
-87.62174748009016 36.81280222899176 -818 8947848
-86.17743296118758 36.97636693728767 -821 8882055
-84.97383752876875 37.21954702656187 -823.5 8816261
-84.01096118283371 37.54879810413817 -825.5 9013639
-83.04808483689865 37.86083422885096 -827.5 8882051
-82.20556803420547 38.211602109498926 -829.25 8882307
-81.60377031799607 38.661352193096626 -830.5 8882053
-81.12233214502854 39.158441509061255 -831.5 8816515
-80.88161305854477 39.7652723735153 -832 8750721
-80.64089397206101 40.367799499753474 -832.5 8816514
-80.27981534233535 40.904696506207245 -833.25 8684928
-79.67801762612595 41.310333273092205 -834.5 8553342
-79.19657945315842 41.76868894511394 -835.5 8421756
-79.07621990991653 42.412099696395224 -835.75 8289917
-79.19657945315842 43.18461881813737 -835.5 8421245
-78.95586036667466 43.75917164597235 -836 8486781
0 0 -1000 5593167
0 0 -1000 5593167
0 0 -1000 5593167
0 0 -1000 5593167
0 0 -1000 5593167
0 0 -1000 5593167
0 0 -1000 5593167
-39.47793018333733 24.702838092601294 -918 8750469
-39.357570640095446 24.97935516097909 -918.25 9474449
-39.71864926982109 25.5635819597612 -917.5 9869206
-40.56116607251427 26.468429703595266 -915.75 9934742
-41.28332333196556 27.308723262198892 -914.25 9803155
-41.524042418449326 27.839155221290266 -913.75 9605771
-41.0426042454818 27.883276090033867 -914.75 9408390
0 0 -1000 5593167
0 0 -1000 5593167
-37.672537034709094 26.604042769580577 -921.75 5916739
-36.83002023201592 26.338300150804205 -923.5 5388856
-36.228222515806515 26.231792069999837 -924.75 5125682
-35.746784342838986 26.20274938907354 -925.75 4600108
-35.50606525635522 26.343700591658934 -926.25 4403242
-35.38570571311334 26.570724670554146 -926.5 4206119
-35.144986626629574 26.704144331261755 -927 4008487
-34.90426754014581 26.83326025375349 -927.5 3679779
-34.663548453662045 26.958072438029347 -928 3613987
-34.663548453662045 27.26794158957247 -928 3285281
-34.78390799690393 27.673567028411135 -927.75 3088159
-35.02462708338769 28.178176558207245 -927.25 3088159
-35.50606525635522 28.88290613902619 -926.25 3088160
-35.98750342932275 29.596243196276887 -925.25 3416867
-36.46894160229027 30.31818772995934 -924.25 4140331
-36.83002023201592 30.94760378000816 -923.5 4732721
-36.709660688774036 31.17462785890337 -923.75 4666927
-36.10786297256463 30.986348751997348 -925 4337962
-35.26534616987146 30.578582772097043 -926.75 4074790
-34.54318891042016 30.261193406722438 -928.25 3942950
-33.94139119421075 30.03740845953543 -929.5 3680548
-33.70067210772699 30.125638868976335 -930 3680032
-33.580312564485105 30.318233042144534 -930.25 3548446
-33.45995302124322 30.508675346204797 -930.5 3482910
-33.21923393475946 30.58614641010601 -931 3351582
-33.098874391517576 30.771209041396425 -931.25 3285789
-32.978514848275694 30.9541198035789 -931.5 3154204
-33.098874391517576 31.36297304607947 -931.25 3153949
-33.098874391517576 31.658855048420996 -931.25 2956057
-32.978514848275694 31.838538006941565 -931.5 3153436
-32.73779576179193 31.89879411797927 -932 3350302
-32.61743621855005 32.073097403729996 -932.25 3416867
-32.61743621855005 32.36467566785564 -932.25 3352100
-32.85815530503381 32.89725949605495 -931.75 3155746
0 0 -1000 5593167
0 0 -1000 5593167
0 0 -1000 5593167
-97.45182595459036 -109.0023202958137 -795.75 7895421
-97.45182595459036 -108.1232817652209 -795.75 8092541
-98.40606660041254 -108.29437046336372 -793.75 8092541
-98.167506438957 -107.14634451826318 -794.25 8026748
-97.92894627750145 -106.00262231137852 -794.75 8027004
-97.92894627750145 -105.11928004256981 -794.75 8027261
-97.92894627750145 -104.23593777376112 -794.75 8224384
-97.92894627750145 -103.35259550495243 -794.75 8224127
-97.57110603531814 -102.09482234733932 -795.5 8158334
-97.09398571240705 -100.71977043533583 -796.5 8223873
-96.61686538949596 -99.35332599976412 -797.5 8158593
-96.49758530876818 -98.36023651844285 -797.75 8027007
-96.61686538949596 -97.61031202233406 -797.5 8224386
-96.8554255509515 -96.97766628061561 -797 8092800
-96.97470563167927 -96.22236211173697 -796.75 8092800
-96.8554255509515 -95.23034856496966 -797 8355972
-96.73614547022373 -94.24048688731031 -797.25 8355972
-96.8554255509515 -93.48303084932373 -797 8290178
-97.09398571240705 -92.83747389295765 -796.5 8355970
-97.21326579313482 -92.07463818220123 -796.25 8356481
-97.21326579313482 -91.19775152071634 -796.25 8356482
-96.97470563167927 -90.09921856509838 -796.75 8159105
-96.61686538949596 -88.89524213518372 -797.5 8027262
-96.3783052280404 -87.80639259055148 -798 8290177
-96.13974506658487 -86.72184678413512 -798.5 8224385
-95.90118490512931 -85.64160471593463 -799 8355971
-95.66262474367377 -84.56566638595002 -799.5 8355971
-94.82766417857937 -82.97219409546766 -801.25 8421764
-94.70838409785159 -82.0135345198734 -801.5 8487557
-94.94694425930713 -81.36367382529146 -801 8684935
-94.94694425930713 -80.507229920332 -801 8487810
-95.18550442076268 -79.85091361842622 -800.5 8553604
-95.18550442076268 -78.99231784435882 -800.5 8685189
-95.0662243400349 -78.0358101378725 -800.75 8553349
-94.94694425930713 -77.08145430049413 -801 8421763
-94.82766417857937 -76.12925033222369 -801.25 8553092
-94.82766417857937 -75.2738823618182 -801.25 8158333
-94.82766417857937 -74.4185143914127 -801.25 7500400
-94.70838409785159 -73.47061416135814 -801.5 7105644
-94.58910401712382 -72.52486580041152 -801.75 8421248
-94.2312637749405 -71.40050852749057 -802.5 8553090
-93.75414345202941 -70.1933024059063 -803.5 8684676
-93.63486337130163 -69.25938932505333 -803.75 8619396
-93.87342353275719 -68.58908587394598 -803.25 8750983
-93.99270361348495 -67.82840203229748 -803 8619141
-93.99270361348495 -66.98056560376976 -803 8553349
-93.87342353275719 -66.04880439202475 -803.25 8684934
-93.75414345202941 -65.11919504938766 -803.5 8684935
-93.75414345202941 -64.27351048996789 -803.5 8554117
-93.63486337130163 -63.34712895099271 -803.75 8488324
-93.51558329057386 -62.42289928112547 -804 8487810
-93.51558329057386 -61.579366590813635 -804 8619908
-93.63486337130163 -60.8133030763953 -803.75 8554115
-93.75414345202941 -60.045087692869025 -803.5 8553601
-93.99270361348495 -59.350037747020366 -803 8685444
-94.2312637749405 -58.65068406295583 -802.5 8685187
-94.35054385566828 -57.87386120299781 -802.25 8553345
-94.35054385566828 -57.02279697080819 -802.25 8422017
-94.2312637749405 -56.10071917004888 -802.5 8356224
-94.2312637749405 -55.250730872413236 -802.5 8356224
-94.35054385566828 -54.46960427423933 -802.25 8487810
-94.46982393639604 -53.686325806957484 -802 8422017
-94.46982393639604 -52.834185640213896 -802 8356481
-94.58910401712382 -52.04767936927015 -801.75 8619910
-94.94694425930713 -51.38813715171019 -801 8554117
-95.18550442076268 -50.65865730013452 -800.5 8685957
-95.18550442076268 -49.80006152606711 -800.5 8685957
-95.0662243400349 -48.88013559441575 -800.75 8816773
-94.82766417857937 -47.90210730884234 -801.25 8816773
-94.70838409785159 -46.98756104996082 -801.5 8685187
-94.70838409785159 -46.133269014109295 -801.5 8751239
-94.58910401712382 -45.22195055888968 -801.75 8882568
-94.35054385566828 -44.2568334879639 -802.25 8685189
-94.11198369421273 -43.29602015525399 -802.75 8685189
-93.87342353275719 -42.33951056075996 -803.25 8553603
-93.75414345202941 -41.44002738563401 -803.5 8685189
-93.75414345202941 -40.59434282621424 -803.5 8619653
-93.99270361348495 -39.849799890883006 -803 8356995
-94.2312637749405 -39.10095321733589 -802.5 8423044
-94.2312637749405 -38.25096491970024 -802.5 8423044
-94.2312637749405 -37.40097662206459 -802.5 8620423
-93.87342353275719 -36.41218710294377 -803.25 8488837
-93.51558329057386 -35.42985319114676 -804 8554630
-93.15774304839054 -34.453974886673564 -804.75 8554374
-93.03846296766277 -33.57063072985716 -805 8488582
-93.15774304839054 -32.773365113373714 -804.75 8488325
-93.3963032098461 -32.01483502884088 -804.25 8554118
-93.3963032098461 -31.17237827308301 -804.25 8553603
-93.3963032098461 -30.329921517325143 -804.25 8750469
-93.51558329057386 -29.525124358963918 -804 8750469
-93.75414345202941 -28.75475899433742 -803.5 8422017
-93.87342353275719 -27.944582163206345 -803.25 8421761
-93.87342353275719 -27.097821669232605 -803.25 8093052
-93.63486337130163 -26.18434945689734 -803.75 8026746
-93.27702312911832 -25.242901058151162 -804.5 8092539
-93.03846296766277 -24.339112256801624 -805 8092539
-93.15774304839054 -23.530011360224517 -804.75 8027002
-93.51558329057386 -22.776862836469242 -804 7961464
-93.75414345202941 -21.989282518979238 -803.5 8027257
-93.75414345202941 -21.143597959559465 -803.5 8225406
-93.63486337130163 -20.272089082836718 -803.75 8159614
-93.3963032098461 -19.3779836924729 -804.25 8290945
-93.3963032098461 -18.535526936715033 -804.25 8619654
-93.27702312911832 -17.6704736673161 -804.5 8751240
-93.27702312911832 -16.829092846112204 -804.5 8816775
-93.27702312911832 -15.987712024908305 -804.5 8948361
-93.27702312911832 -15.14633120370441 -804.5 8750982
-93.51558329057386 -14.341535933350897 -804 8947848
-93.51558329057386 -13.498003243039063 -804 8882311
-93.3963032098461 -12.638329646409975 -804.25 8816775
-93.3963032098461 -11.79587289065211 -804.25 8685703
-93.3963032098461 -10.953416134894244 -804.25 8619910
-93.3963032098461 -10.110959379136379 -804.25 8685446
-93.3963032098461 -9.268502623378513 -804.25 8882823
-93.3963032098461 -8.426045867620648 -804.25 8948359
-93.51558329057386 -7.593274410856222 -804 8816773
-93.51558329057386 -6.749741720544387 -804 8882568
-93.51558329057386 -5.906209030232553 -804 8947848
-93.3963032098461 -5.0562188445891865 -804.25 8947848
-93.3963032098461 -4.213762088831322 -804.25 8947846
-93.51558329057386 -3.3756109592970494 -804 9013896
-93.51558329057386 -2.5320782689852144 -804 8882566
-93.15774304839054 -1.6820843073264153 -804.75 8816773
-92.56134264475168 -0.8363903078680603 -806 8948359
-92.08422232184058 -0.0014575419571133958 -807 8750980
-92.08422232184058 0.8291639337070911 -807 8817029
-92.32278248329614 1.664085371571739 -806.5 8685957
-92.56134264475168 2.503310547652264 -806 8883081
-92.79990280620723 3.3468394619486657 -805.5 8817289
-92.68062272547945 4.178538760174556 -805.75 8882569
-92.44206256402391 5.001632469976409 -806.25 9014154
-92.20350240256836 5.8204224415623855 -806.75 9145740
-92.20350240256836 6.652119851780559 -806.75 9211020
-92.32278248329614 7.4934987849767385 -806.5 9145227
-92.68062272547945 8.358544502344808 -805.75 9013643
-92.68062272547945 9.194545650778858 -805.75 9145229
-92.20350240256836 9.978909492653253 -806.75 9079435
-91.96494224111282 10.78263638048366 -807.25 9014668
-91.84566216038505 11.597120725846045 -807.5 8948875
-91.84566216038505 12.42559033240231 -807.5 8751750
-91.84566216038505 13.254059938958576 -807.5 8883336
-91.72638207965727 14.064240546105083 -807.75 8817543
-91.6071019989295 14.872269284143652 -808 8488578
-91.36854183747396 15.657705284556583 -808.5 7962234
-91.24926175674618 16.460354349825305 -808.75 7633270
-91.1299816760184 17.26085154598609 -809 8685446
-91.1299816760184 18.08286554521854 -809 8750982
-91.1299816760184 18.904879544450992 -809 8290945
-91.24926175674618 19.752714084970986 -808.75 8356995
-91.6071019989295 20.656493446281946 -808 8554373
-91.72638207965727 21.510783594125755 -807.75 8620164
-91.84566216038505 22.367225611077505 -807.5 8751750
-91.6071019989295 23.13544665862693 -808 8751750
-91.48782191820172 23.930564182017868 -808.25 8817030
-91.24926175674618 24.691253687689503 -808.75 8816773
-91.1299816760184 25.480991538310597 -809 9013639
-91.01070159529063 26.26857751982375 -809.25 9079175
-91.1299816760184 27.125019536775497 -809 9079178
-91.1299816760184 27.94703353600795 -809 9079178
-91.24926175674618 28.806703356621604 -808.75 9013386
-91.24926175674618 29.629793290408024 -808.75 9013641
-91.24926175674618 30.452883224194444 -808.75 8948359
-91.24926175674618 31.275973157980864 -808.75 8948359
-91.1299816760184 32.0571035321702 -809 8816517
-90.89142151456286 32.79304654310055 -809.5 8882053
-90.77214143383509 33.56879724452005 -809.75 8947846
-90.89142151456286 34.43277080334958 -809.5 8947589
-91.1299816760184 35.34515952910001 -809 8948100
-91.01070159529063 36.11983429596553 -809.25 8882308
-90.05646094946844 36.55345102527684 -811.25 9079432
-88.38653981927963 36.67290619287545 -814.75 9079434
-86.83589876981858 36.81280222899176 -818 9013641
-85.52381788181309 37.02800990787048 -820.75 9013641
-84.5695772359909 37.37770374197219 -822.75 8816261
-83.97317683235204 37.87156714228262 -824 8947845
-83.25749634798541 38.29980042280865 -825.5 8947843
-82.54181586361877 38.71512248868706 -827 8882307
-81.70685529852436 39.060510696565174 -828.75 8816516
-80.99117481415772 39.448934398594346 -830.25 8882053
-80.39477441051885 39.883621398436475 -831.5 8816260
-79.91765408760776 40.367799499753474 -832.5 8816514
-79.20197360324113 40.72071736150166 -834 8750721
-78.60557319960226 41.123126324724716 -835.25 8553342
-78.24773295741895 41.64173244376101 -836 8422013
-78.12845287669117 42.282991325934354 -836.25 8421502
-78.48629311887449 43.18461881813737 -835.5 8618624
0 0 -1000 5593167
0 0 -1000 5593167
0 0 -1000 5593167
0 0 -1000 5593167
0 0 -1000 5593167
0 0 -1000 5593167
0 0 -1000 5593167
0 0 -1000 5593167
-39.0045863979817 24.62752456183117 -918.25 9276812
-39.0045863979817 24.97935516097909 -918.25 9540498
-39.36242664016502 25.5635819597612 -917.5 9935000
-39.95882704380388 26.3113470347312 -916.25 10132122
-40.79378760889829 27.22910599321289 -914.5 10000535
-41.03234777035384 27.758462017750293 -914 9737614
0 0 -1000 5593167
0 0 -1000 5593167
0 0 -1000 5593167
-36.85754494488179 26.264055002557182 -922.75 5784897
-36.14186446051515 26.080081521874753 -924.25 5652028
-35.66474413760406 26.057494448272266 -925.25 5388342
-35.306903895420746 26.11452464365578 -926 4928559
-35.0683437339652 26.25439991168721 -926.5 4469035
-34.829783572509655 26.389971441502755 -927 4271912
-34.59122341105411 26.521239233102428 -927.5 3942692
-34.352663249598564 26.648203286486225 -928 3876900
-34.23338316887079 26.864468019841745 -928.25 3745060
-34.23338316887079 27.1732612368309 -928.25 3482401
-34.47194333032633 27.673567028411135 -927.75 3285538
-34.71050349178188 28.178176558207245 -927.25 3088416
-35.18762381469297 28.88290613902619 -926.25 3088416
-35.903304299059606 29.794211378191783 -924.75 3482917
-36.49970470269847 30.61836780649359 -923.5 3943723
-36.73826486415402 31.14987570013893 -923 4666930
-36.61898478342624 31.37905164814208 -923.25 4798002
-35.903304299059606 31.089636581170673 -924.75 4535084
-35.0683437339652 30.68294653582434 -926.5 4140583
-34.23338316887079 30.261193406722438 -928.25 3942950
-33.63698276523193 30.03740845953543 -929.5 3680549
-33.39842260377638 30.125638868976335 -930 3745826
-33.159862442320836 30.209565540201364 -930.5 3679776
-33.04058236159306 30.398931909707656 -930.75 3613984
-32.92130228086529 30.58614641010601 -931 3547935
-32.92130228086529 30.883104347001503 -931 3481886
-32.92130228086529 31.180062283896994 -931 3416349
-32.92130228086529 31.477020220792486 -931 3350559
-32.92130228086529 31.77397815768798 -931 3218973
-32.92130228086529 32.07093609458347 -931 3416096
-32.802022200137515 32.25061905310404 -931.25 3481889
-32.682742119409745 32.42815014251667 -931.5 3548194
-32.56346203868197 32.60352936282136 -931.75 3483684
-32.802022200137515 33.13826506012861 -931.25 3222308
-33.39842260377638 34.04204064542414 -930 3222049
0 0 -1000 5593167
0 0 -1000 5593167
-96.56990508056306 -108.1232817652209 -795.75 8158335
-96.92450693520405 -107.63804094540394 -795 8092541
-97.04270755341771 -106.8859645801872 -794.75 8092541
-96.92450693520405 -105.8735082768945 -795 8092798
-96.68810569877672 -104.73516574277967 -795.5 8092541
-96.56990508056306 -103.72808911225681 -795.75 8224127
-96.56990508056306 -102.84905058166399 -795.75 8092541
-96.4517044623494 -101.84520175480303 -796 8223873
-96.21530322592207 -100.71977043533583 -796.5 8223873
-95.7425007530674 -99.35332599976412 -797.5 8158593
-95.50609951664008 -98.23865402583662 -798 8027007
-95.50609951664008 -97.36929890622952 -798 8092800
-95.50609951664008 -96.49994378662242 -798 8158593
-95.62430013485374 -95.74894335595965 -797.75 8158593
-95.62430013485374 -94.8785123017986 -797.75 8290179
-95.62430013485374 -94.00808124763753 -797.75 8290177
-95.7425007530674 -93.25277707875888 -797.5 8355970
-95.97890198949473 -92.60937199150075 -797 8421763
-96.21530322592207 -91.96166316602674 -796.5 8422017
-96.4517044623494 -91.30965060233686 -796 8356225
-96.4517044623494 -90.431688006298 -796 8290177
-96.33350384413573 -89.44397819774659 -796.25 8290177
-95.97890198949473 -88.2410777023859 -797 8224384
-95.50609951664008 -86.93703747094439 -798 8355970
-95.15149766199909 -85.74812412478529 -798.75 8355969
-94.7968958073581 -84.56566638595002 -799.5 8421763
-94.7968958073581 -83.70276687366675 -799.5 8619142
-94.67869518914443 -82.73657575619471 -799.75 8685192
-94.67869518914443 -81.8747521784654 -799.75 8619397
-94.7968958073581 -81.1140683368169 -799.5 8553603
-94.91509642557176 -80.35123262606048 -799.25 8487808
-94.67869518914443 -79.28928144527747 -799.75 8685188
-94.20589271628978 -78.0358101378725 -800.75 8684933
-93.73309024343513 -76.7909463068993 -801.75 8553349
-93.37848838879414 -75.65045001566882 -802.5 8684679
-93.14208715236681 -74.61109346051917 -803 8421504
-93.02388653415315 -73.66964883778843 -803.25 7566193
-92.90568591593949 -72.73035608416562 -803.5 7236717
-92.90568591593949 -71.88467152474584 -803.5 8552834
-92.78748529772582 -70.94860657478495 -803.75 8882055
-92.5510840612985 -69.92538903794483 -804.25 8816262
-92.43288344308483 -68.99470376075377 -804.5 8553349
-92.78748529772582 -68.41478070018753 -803.75 8684935
-93.14208715236681 -67.82840203229748 -803 8619142
-93.26028777058048 -67.06556632154106 -802.75 8750728
-93.26028777058048 -66.21665395845937 -802.75 8750728
-93.4966890070078 -65.53343929270437 -802.25 8684935
-93.61488962522147 -64.76414797462412 -802 8554117
-93.73309024343513 -63.99270478743595 -801.75 8619910
-93.85129086164879 -63.219109731139824 -801.5 8554117
-93.85129086164879 -62.364817695288295 -801.5 8619909
-93.96949147986246 -61.58799483533027 -801.25 8554371
-94.08769209807612 -60.8090201062643 -801 8488065
-94.08769209807612 -59.952576201304836 -801 8685187
-94.20589271628978 -59.170373668576964 -800.75 8487808
-94.08769209807612 -58.23968839138591 -801 8553601
-93.73309024343513 -57.166975977055486 -801.75 8356479
-93.4966890070078 -56.171732738618566 -802.25 8422017
-93.4966890070078 -55.32066850642895 -802.25 8422273
-93.61488962522147 -54.53846597370107 -802 8487810
-93.37848838879414 -53.550754277141934 -802.5 8619653
-93.02388653415315 -52.50063648844487 -803.25 8488324
-92.78748529772582 -51.52260820287146 -803.75 8554117
-92.90568591593949 -50.74255753925152 -803.5 8685703
-93.14208715236681 -50.02383703321554 -803 8751750
-93.26028777058048 -49.238406696825756 -802.75 8751493
-93.26028777058048 -48.389494333744075 -802.75 8750980
-93.02388653415315 -47.420073524602415 -803.25 8750980
-92.78748529772582 -46.45495645367663 -803.75 8750980
-92.90568591593949 -45.668450182732876 -803.5 8816775
-93.26028777058048 -44.99384488141735 -802.75 8750982
-93.61488962522147 -44.312783972778014 -802 8553603
-93.85129086164879 -43.570392906554716 -801.5 8685189
-93.73309024343513 -42.662302254997016 -801.75 8816775
-93.4966890070078 -41.703640791395046 -802.25 8816775
-93.26028777058048 -40.74928306600895 -802.75 8750982
-93.14208715236681 -39.849799890883006 -803 8685703
-93.14208715236681 -39.00196346235529 -803 8554117
-93.02388653415315 -38.10570809089125 -803.25 8619910
-93.02388653415315 -37.25894759691751 -803.25 8554374
-92.78748529772582 -36.31965295528698 -803.75 8554630
-92.43288344308483 -35.33947091259792 -804.5 8488837
-92.07828158844384 -34.36574447723266 -805.25 8620423
-91.84188035201652 -33.441512919357706 -805.75 8620425
-91.96008097023018 -32.64747510653617 -805.5 8554119
-92.43288344308483 -31.97394762778233 -804.5 8685704
-92.78748529772582 -31.252001206092164 -803.75 8816775
-93.02388653415315 -30.48486364512757 -803.25 8553603
-92.90568591593949 -29.60044355375719 -803.5 8553603
-92.66928467951216 -28.681591668652082 -804 8356224
-92.5510840612985 -27.80255125005155 -804.25 8356224
-92.43288344308483 -26.925662700558952 -804.5 8093052
-92.31468282487117 -26.050926020174295 -804.75 8158845
-92.31468282487117 -25.21062113352437 -804.75 8224638
-92.43288344308483 -24.401520236947267 -804.5 8224383
-92.5510840612985 -23.590267471262223 -804.25 8158590
-92.66928467951216 -22.776862836469242 -804 8158846
-92.78748529772582 -21.961306332568324 -803.75 8487810
-92.78748529772582 -21.11669770770252 -803.75 8619396
-92.5510840612985 -20.220440448230764 -804.25 8750982
-92.43288344308483 -19.35323530972389 -804.5 8816519
-92.43288344308483 -18.511854488519994 -804.5 8882055
-92.31468282487117 -17.64787715367503 -804.75 8816262
-92.31468282487117 -16.8075722670251 -804.75 8947848
-92.31468282487117 -15.967267380375175 -804.75 8882056
-92.43288344308483 -15.14633120370441 -804.5 8882055
-92.43288344308483 -14.304950382500513 -804.5 8750468
-92.31468282487117 -13.446352720425393 -804.75 8816260
-92.1964822066575 -12.589906927458212 -805 8750467
-92.1964822066575 -11.750677975362255 -805 8882054
-92.31468282487117 -10.925438060475614 -804.75 8750469
-92.5510840612985 -10.110959379136379 -804.25 8882055
-92.66928467951216 -9.280339791479891 -804 9013641
-92.90568591593949 -8.458329568262872 -803.5 8947848
-93.14208715236681 -7.632015606829978 -803 8882311
-93.02388653415315 -6.775569813862797 -803.25 8948361
-92.66928467951216 -5.906209030232553 -804 8947848
-92.43288344308483 -5.049761349257655 -804.5 9013641
-92.31468282487117 -4.202998967276197 -804.75 8882310
-92.31468282487117 -3.36269408062627 -804.75 9014152
-92.1964822066575 -2.5191595023067186 -805 8882566
-92.07828158844384 -1.6777767930951057 -805.25 8948357
-91.96008097023018 -0.8385459529914316 -805.5 9079943
-92.07828158844384 -0.0014707580111286728 -805.25 8816771
-92.07828158844384 0.83668225953086 -805.25 8882564
-92.07828158844384 1.6748352770728485 -805.25 8882567
-92.1964822066575 2.516214210269028 -805 8948875
-92.1964822066575 3.355443162364986 -805 8883338
-92.07828158844384 4.189294329698814 -805.25 9014153
-91.84188035201652 5.014539908608606 -805.75 9079946
-91.60547911558919 5.835481749302521 -806.25 9079946
-91.36907787916186 6.652119851780559 -806.75 9145227
-91.48727849737553 7.4934987849767385 -806.5 9079434
-91.72367973380285 8.347787044812831 -806 9276813
-91.48727849737553 9.159045474521024 -806.5 9145227
-91.01447602452087 9.940181512733512 -807.5 9276813
-90.89627540630721 10.754665858095896 -807.75 9211276
-90.89627540630721 11.582059530098192 -807.75 9211531
-91.01447602452087 12.42559033240231 -807.5 8948359
-90.89627540630721 13.236846874102786 -807.75 8882566
-90.54167355166622 14.009373547875803 -808.5 8750980
-90.18707169702523 14.775444614325007 -809.25 8487808
-89.83246984238424 15.535060073450396 -810 7961464
-89.9506704605979 16.374287137538637 -809.75 8027257
-89.9506704605979 17.19307333310918 -809.75 8882053
-90.06887107881157 18.03552820085933 -809.5 8882311
-90.77807478809355 19.00385797138529 -808 8553861
-91.01447602452087 19.881816791408706 -807.5 8685703
-91.01447602452087 20.71028639796497 -807.5 8817289
-90.89627540630721 21.510783594125755 -807.75 8751750
-90.89627540630721 22.338177266128053 -807.75 8817543
-90.77807478809355 23.13544665862693 -808 8751750
-90.54167355166622 23.899363967960475 -808.5 8817286
-90.18707169702523 24.62670139046679 -809.25 8882566
-89.83246984238424 25.347583205649286 -810 9013639
-89.47786798774325 26.06200941350797 -810.75 9013639
-89.47786798774325 26.876491870862633 -810.75 9145227
-89.71426922417058 27.76413410187177 -810.25 9013897
-90.06887107881157 28.693735892477992 -809.5 9013641
-90.3052723152389 29.59106153447285 -809 9079434
-90.42347293345256 30.452883224194444 -808.75 9014152
-90.54167355166622 31.31685678302398 -808.5 9014152
-90.42347293345256 32.099063091767285 -808.75 8882309
-90.3052723152389 32.879117531402656 -809 9145225
-90.18707169702523 33.65702010193009 -809.25 9079432
-90.3052723152389 34.523145529867556 -809 9144968
-90.54167355166622 35.43768612472592 -808.5 9145225
-90.42347293345256 36.214512760699385 -808.75 8947846
-89.47786798774325 36.65028135911864 -810.75 9079432
-87.94125995096562 36.82137949730005 -814 9145225
-86.404651914188 36.96450333707826 -817.25 9079434
-85.34084635026502 37.28622476078449 -819.5 9079434
-84.51344202276938 37.694017172792826 -821.25 8947847
-83.8042383134874 38.140541340736334 -822.75 9013638
-82.97683398599176 38.5192835197875 -824.5 8816771
-82.03122904028245 38.827015906284416 -826.5 8816771
-81.2038247127868 39.17455598327048 -828.25 8947845
-80.49462100350482 39.565131554407586 -829.75 8947846
-79.9036179124365 40.001970423357655 -831 8947845
-79.19441420315452 40.367799499753474 -832.5 8816514
-78.24880925744522 40.59806459836461 -834.5 8619135
-77.42140492994957 40.87351706023473 -836.25 8618881
-76.94860245709492 41.32434119037868 -837.25 8553088
-77.06680307530858 42.08932877024305 -837 8553088
-77.6578061663769 43.11898869835297 -835.75 8684417
0 0 -1000 5593167
0 0 -1000 5593167
0 0 -1000 5593167
0 0 -1000 5593167
0 0 -1000 5593167
0 0 -1000 5593167
0 0 -1000 5593167
-38.297000301226966 24.052981174034777 -919 9145220
-38.06059906479964 24.250956907980537 -919.5 9540238
-38.06059906479964 24.597407834358613 -919.5 9737877
-38.53340153765429 25.253720360248945 -918.5 10066331
-39.12440462872261 25.997181697003064 -917.25 10066329
-39.95180895621825 26.91063691726888 -915.5 9934741
-40.424611429072904 27.59707561067035 -914.5 9803155
-40.070009574431914 27.719737813845985 -915.25 9473933
0 0 -1000 5593167
0 0 -1000 5593167
-36.64219164623567 26.349051944313032 -922.5 5982276
-35.932987936953694 26.16615439818457 -924 5717821
-35.46018546409904 26.144643259136053 -925 5388597
-35.10558360945805 26.20274938907354 -925.75 4994096
-34.869182373030725 26.343700591658934 -926.25 4534315
-34.6327811366034 26.48034805602845 -926.75 4271656
-34.514580518389735 26.704144331261755 -927 4205862
-34.39637990017607 26.925788737387123 -927.25 4074277
-34.27817928196241 27.145281274404553 -927.5 3745314
-34.27817928196241 27.457302295055612 -927.5 3548193
-34.39637990017607 27.865079603002215 -927.25 3351586
-34.514580518389735 28.275008780056755 -927 3285794
-34.869182373030725 28.88290613902619 -926.25 3088672
-35.46018546409904 29.695227287234335 -925 3351587
-35.932987936953694 30.418247755470755 -924 3811623
-36.16938917338102 30.94760378000816 -923.5 4600622
-36.05118855516736 31.17462785890337 -923.75 4863535
-35.46018546409904 30.986348751997348 -925 4862765
-34.6327811366034 30.578582772097043 -926.75 4403242
-33.80537680910775 30.155753708441175 -928.5 4074535
-33.09617309982577 29.824377193864965 -930 3942952
-32.74157124518478 29.80286416680873 -930.75 3876645
-32.50517000875745 29.883563034371853 -931.25 3811107
-32.50517000875745 30.17944503671338 -931.25 3679521
-32.50517000875745 30.4753270390549 -931.25 3547935
-32.623370626971116 30.883104347001503 -931 3613215
-32.623370626971116 31.180062283896994 -931 3481629
-32.50517000875745 31.36297304607947 -931.25 3482144
-32.50517000875745 31.658855048420996 -931.25 3547683
-32.623370626971116 32.07093609458347 -931 3613476
-32.623370626971116 32.36789403147897 -931 3481890
-32.623370626971116 32.66485196837446 -931 3679524
-32.623370626971116 32.96180990526995 -931 3483428
-32.74157124518478 33.37927062420228 -930.75 3287586
-33.21437371803943 34.16361936201494 -929.75 3287075
0 0 -1000 5593167
0 0 -1000 5593167
-96.74207460783174 -109.31435830853422 -793.5 8092543
-96.74207460783174 -108.42563636695569 -793.5 8158334
-96.74207460783174 -107.53691442537713 -793.5 8158334
-96.74207460783174 -106.6481924837986 -793.5 8092541
-96.74207460783174 -105.75947054222006 -793.5 7960955
-96.62495345213219 -104.74378643526543 -793.75 8092798
-96.39071114073307 -103.60436796659666 -794.25 8158334
-96.15646882933397 -102.46925323614373 -794.75 8158080
-95.80510536223531 -101.21470788219253 -795.5 8092030
-95.45374189513664 -99.96661813556513 -796.25 8421508
-95.3366207394371 -98.96814898147402 -796.5 8290179
-95.3366207394371 -98.09233825454311 -796.5 8224386
-95.3366207394371 -97.2165275276122 -796.5 8355972
-95.10237842803798 -96.10400742279263 -797 8224642
-94.98525727233843 -95.1130698105793 -797.25 8224386
-94.98525727233843 -94.24048688731031 -797.25 8355970
-94.98525727233843 -93.3679039640413 -797.25 8290177
-95.10237842803798 -92.60937199150075 -797 8224384
-95.3366207394371 -91.96166316602674 -796.5 8289920
-95.21949958373754 -90.97395335747532 -796.75 8355970
-95.10237842803798 -89.98839541803184 -797 8224384
-94.86813611663888 -88.89524213518372 -797.5 8290431
-94.51677264954021 -87.69772131259288 -798.25 8290431
-94.2825303381411 -86.61425144073048 -798.75 8422017
-94.63389380523977 -86.0676823513373 -798 8356225
-94.2825303381411 -84.88199680884011 -798.75 8619141
-94.048288026742 -83.80713441340947 -799.25 8750470
-93.81404571534289 -82.73657575619471 -799.75 8816263
-93.81404571534289 -81.8747521784654 -799.75 8553603
-93.93116687104245 -81.1140683368169 -799.5 8750725
-93.93116687104245 -80.25116882453362 -799.5 8554114
-93.69692455964334 -79.19029357830458 -800 8751494
-93.34556109254467 -78.0358101378725 -800.75 8751239
-92.87707646974646 -76.7909463068993 -801.75 8750729
-92.52571300264779 -75.65045001566882 -802.5 8684935
-92.05722837984958 -74.42172520300517 -803.5 8553603
-91.82298606845046 -73.38882425517932 -804 7566193
-91.94010722415003 -72.63782382451654 -803.75 7434096
-92.17434953554913 -71.97612784984094 -803.25 8223868
-92.29147069124869 -71.21974774640833 -803 8882055
-92.40859184694824 -70.46121577386776 -802.75 8750469
-92.64283415834734 -69.78876045365247 -802.25 8619398
-93.22843993684512 -69.37345915585895 -801 8684935
-93.34556109254467 -68.60309190322474 -800.75 8684935
-93.22843993684512 -67.66057134594001 -801 8750729
-93.34556109254467 -66.88805222419786 -800.75 8684935
-93.34556109254467 -66.03053238468443 -800.75 8619143
-93.22843993684512 -65.09123963106163 -801 8619910
-93.11131878114557 -64.15409874654675 -801.25 8554117
-92.994197625446 -63.219109731139824 -801.5 8619653
-93.11131878114557 -62.44336280573577 -801.25 8554117
-93.22843993684512 -61.66546401122377 -801 8620164
-93.46268224824422 -60.96180658894336 -800.5 8685444
-93.46268224824422 -60.10321081487596 -800.5 8685187
-93.22843993684512 -59.096132296345374 -801 8422015
-92.64283415834734 -57.87386120299781 -802.25 8685187
-92.17434953554913 -56.73443895831358 -803.25 8487810
-92.05722837984958 -55.81666489577016 -803.5 8487810
-92.40859184694824 -55.18079323839752 -802.75 8619396
-92.7599553140469 -54.53846597370107 -802 8422273
-92.7599553140469 -53.686325806957484 -802 8685958
-92.52571300264779 -52.700765979506286 -802.5 8883080
-92.17434953554913 -51.65387599447113 -803.25 8817030
-92.05722837984958 -50.74255753925152 -803.5 9014154
-92.05722837984958 -49.89687297983175 -803.5 8882311
-92.17434953554913 -49.113594512549895 -803.25 9013640
-92.17434953554913 -48.266834018576155 -803.25 8817289
-92.17434953554913 -47.420073524602415 -803.25 8751495
-92.17434953554913 -46.57331303062867 -803.25 8619910
-92.29147069124869 -45.78465489057698 -803 8750982
-92.52571300264779 -45.05087130078544 -802.5 8816518
-92.7599553140469 -44.312783972778014 -802 8816519
-93.11131878114557 -43.62526745681486 -801.25 8882312
-93.34556109254467 -42.877496717821714 -800.75 8947850
-93.22843993684512 -41.96725419715607 -801 9013644
-93.11131878114557 -41.05916354559837 -801.25 8882314
-92.87707646974646 -40.102653951104344 -801.75 8947850
-92.64283415834734 -39.15044809482619 -802.25 8947850
-92.52571300264779 -38.25096491970024 -802.5 8882314
-92.40859184694824 -37.35363361368223 -802.75 8816521
-92.29147069124869 -36.45845417677216 -803 8882568
-92.29147069124869 -35.610617748244444 -803 8751239
-92.05722837984958 -34.674550910275826 -803.5 8685703
-91.70586491275091 -33.69974854035661 -804.25 8619910
-91.58874375705136 -32.81532844898623 -804.5 8685702
-91.82298606845046 -32.05572242989942 -804 8751496
-92.05722837984958 -31.291812672596738 -803.5 8750982
-92.29147069124869 -30.52359917707818 -803 8356224
-92.17434953554913 -29.63810315115383 -803.25 8290431
-91.94010722415003 -28.718175331494752 -803.75 8290431
-91.58874375705136 -27.76704352176285 -804.5 8356224
-91.47162260135181 -26.891230906824223 -804.75 8422017
-91.58874375705136 -26.084281879355057 -804.5 8356224
-91.82298606845046 -25.307460907404746 -804 8290431
-91.94010722415003 -24.495132207165735 -803.75 8290689
-91.94010722415003 -23.650523582299932 -803.75 8290947
-91.70586491275091 -22.74781071550436 -804.25 8619142
-91.58874375705136 -21.877377773335578 -804.5 8750982
-91.58874375705136 -21.035996952131683 -804.5 8685445
-91.58874375705136 -20.194616130927788 -804.5 8816518
-91.58874375705136 -19.35323530972389 -804.5 8816519
-91.47162260135181 -18.488182040324954 -804.75 8816519
-91.35450144565225 -17.62528064003396 -805 8816775
-91.35450144565225 -16.786051687938002 -805 8816775
-91.35450144565225 -15.946822735842044 -805 8882313
-91.35450144565225 -15.107593783746086 -805 8882313
-91.35450144565225 -14.268364831650128 -805 8685188
-91.35450144565225 -13.42913587955417 -805 8816518
-91.35450144565225 -12.589906927458212 -805 8816518
-91.35450144565225 -11.750677975362255 -805 8882055
-91.35450144565225 -10.911449023266297 -805 8882055
-91.35450144565225 -10.072220071170339 -805 8947848
-91.58874375705136 -9.256665455277137 -804.5 8882055
-91.82298606845046 -8.436807101168057 -804 9014154
-92.05722837984958 -7.6126450088431 -803.5 8882568
-92.17434953554913 -6.775569813862797 -803.25 9079947
-91.94010722415003 -5.913742460118054 -803.75 9079434
-91.70586491275091 -5.0562188445891865 -804.25 9079434
-91.47162260135181 -4.202998967276197 -804.75 8882566
-91.47162260135181 -3.36269408062627 -804.75 9014152
-91.47162260135181 -2.5223891939763425 -804.75 9014152
-91.47162260135181 -1.6820843073264153 -804.75 9014150
-91.35450144565225 -0.8407015981148029 -805 9079943
-91.70586491275091 -0.0014783100419945453 -804.25 8882564
-91.47162260135181 0.8388303526233654 -804.75 9014151
-91.2373802899527 1.6748352770728485 -805.25 9014152
-91.12025913425315 2.5097623789606462 -805.5 8883082
-91.12025913425315 3.3468394619486657 -805.5 8817545
-91.35450144565225 4.194672114460944 -805 9014152
-91.58874375705136 5.046808505189099 -804.5 9014152
-91.70586491275091 5.895718980263063 -804.25 8948359
-91.82298606845046 6.7467813244449655 -804 9014153
-91.94010722415003 7.599995537734806 -803.75 9145738
-91.94010722415003 8.44460416260061 -803.75 9145740
-92.05722837984958 9.301046179552358 -803.5 9014154
-92.05722837984958 10.146730738972131 -803.5 9079947
-91.94010722415003 10.97843003719802 -803.75 9145226
-91.58874375705136 11.777855074820268 -804.5 9013639
-91.0031379785536 12.538550244515058 -805.75 8684674
-90.41753220005582 13.288486068670156 -807 8684674
-89.9490475772576 14.045951546695324 -808 8421502
-89.71480526585849 14.833539416216194 -808.5 8355709
-89.59768411015894 15.637264416038885 -808.75 7895158
-89.71480526585849 16.48187115289697 -808.5 7829365
-89.83192642155805 17.328629758863 -808.25 8487038
-89.83192642155805 18.153871561757356 -808.25 8947590
-89.83192642155805 18.979113364651713 -808.25 8750982
-89.83192642155805 19.804355167546074 -808.25 8685703
-89.9490475772576 20.656493446281946 -808 8685703
-89.9490475772576 21.482811183730274 -808 8817543
-89.71480526585849 22.251032231279698 -808.5 8949129
-89.48056295445939 23.014949540613244 -809 9014152
-89.59768411015894 23.868163753903087 -808.75 9014152
-89.71480526585849 24.723529836300862 -808.5 9079689
-89.59768411015894 25.514343621475923 -808.75 9079432
-89.48056295445939 26.303005537543047 -809 9013639
-89.24632064306027 27.054011632228967 -809.5 9079945
-89.12919948736072 27.837293875526242 -809.75 9079945
-89.12919948736072 28.656080071096785 -809.75 9079945
-89.24632064306027 29.513598022602505 -809.5 9145738
-89.24632064306027 30.333460152727017 -809.5 9145738
-89.12919948736072 31.11243865780842 -809.75 9014152
-88.89495717596161 31.847305734184797 -810.25 9013896
-88.66071486456251 32.5778690723453 -810.75 9145225
-88.66071486456251 33.392351529699965 -810.75 9145226
-89.12919948736072 34.38758344009059 -809.75 9210762
-89.59768411015894 35.391422826912965 -808.75 9145225
-89.59768411015894 36.214512760699385 -808.75 9013639
-88.77783602026206 36.698696526039534 -810.5 9079432
-87.37238215186741 36.92036170024978 -813.5 9079432
-85.8498071277732 37.06563740913593 -816.75 9013640
-84.67859557077766 37.3378677313673 -819.25 9079690
-83.62450516948168 37.641298267656055 -821.5 9079689
-82.68753592388525 37.979156821664105 -823.5 9013895
-81.7505666782888 38.29980042280865 -825.5 8816771
-80.69647627699283 38.547282362291014 -827.75 8750978
-79.87662818709595 38.88944276650723 -829.5 8947846
-79.17390125289862 39.274638664874495 -831 8882053
-78.58829547440085 39.706097861054715 -832.25 8882053
-77.88556854020352 40.066547264680686 -833.75 8750722
-77.06572045030664 40.3527590720905 -835.5 8618880
-76.36299351610931 40.68631011186724 -837 8684674
-76.01163004901066 41.19738468902575 -837.75 8684674
-76.48011467180888 42.153882955473485 -836.75 8684673
-76.94859929460709 43.11898869835297 -835.75 8684418
0 0 -1000 5593167
0 0 -1000 5593167
0 0 -1000 5593167
0 0 -1000 5593167
0 0 -1000 5593167
0 0 -1000 5593167
0 0 -1000 5593167
-37.36164866815778 23.681793192953993 -920.25 9736586
-37.24452751245823 23.949702784900037 -920.5 9802896
-37.36164866815778 24.36823943838633 -920.25 10066071
-37.830133290956 25.021324160614753 -919.25 10066329
-38.415739069453764 25.761557693706965 -918 10000792
-39.235587159350644 26.67178511031087 -916.25 9869206
-39.704071782148866 27.354996000050434 -915.25 9671570
-39.58695062644931 27.637968675752045 -915.5 9408397
0 0 -1000 5593167
0 0 -1000 5593167
0 0 -1000 5593167
-35.37058902126536 25.994008645564936 -924.5 5389368
-34.66786208706803 25.796048015680906 -926 5519925
-34.199377464269816 25.761625661984755 -927 5125681
-34.199377464269816 26.075798551743755 -927 4797742
-34.31649861996937 26.48034805602845 -926.75 4600107
-34.43361977566892 26.887049429421083 -926.5 4468522
-34.43361977566892 27.20337418828802 -926.5 4336936
-34.43361977566892 27.519698947154957 -926.5 4139813
-34.31649861996937 27.741343353280325 -926.75 3745825
-34.31649861996937 28.056592177593295 -926.75 3482911
-34.31649861996937 28.37184100190626 -926.75 3483172
-34.31649861996937 28.687089826219232 -926.75 3417123
-34.55074093136848 29.200306832447097 -926.25 3417379
-35.019225554166695 29.917947627913673 -925.25 3811621
-35.48771017696491 30.644195899812 -924.25 4534828
-35.48771017696491 30.97020406966466 -924.25 4928815
-35.13634670986625 30.986348751997348 -925 4928043
-34.31649861996937 30.578582772097043 -926.75 4665129
-33.49665053007249 30.155753708441175 -928.5 4468009
-32.91104475157472 29.930892826700198 -929.75 4205353
-32.559681284476056 29.91045573419793 -930.5 4073514
-32.32543897307695 29.992230536315024 -931 3941928
-32.32543897307695 30.289188473210515 -931 3745060
-32.2083178173774 30.4753270390549 -931.25 3613474
-32.2083178173774 30.771209041396425 -931.25 3547937
-32.09119666167784 30.9541198035789 -931.5 3613474
-31.974075505978288 31.134878696653438 -931.75 3613474
-32.09119666167784 31.54373193915401 -931.5 3547424
-32.2083178173774 31.954737050762517 -931.25 3744291
-32.442560128776506 32.48516900985389 -930.75 3612963
-32.442560128776506 32.78320288130335 -930.75 3745575
-32.559681284476056 33.20066360023568 -930.5 3745831
-32.442560128776506 33.37927062420228 -930.75 3483173
-32.676802440175614 33.92046192883334 -930.25 3351843
0 0 -1000 5593167
0 0 -1000 5593167
-94.57397994613756 -107.85859808892904 -796.25 7961214
-95.15418841206478 -107.63804094540394 -795 8027007
-95.73439687799201 -107.40672445633915 -793.75 8092798
-95.85043857117745 -106.6481924837986 -793.5 7961212
-95.85043857117745 -105.75947054222006 -793.5 8158335
-95.73439687799201 -104.74378643526543 -793.75 8092798
-95.61835518480656 -103.73025419741876 -794 8158591
-95.50231349162111 -102.71887382868002 -794.25 8223873
-95.15418841206478 -101.46217660562087 -795 8289666
-95.03814671887933 -100.45725184420594 -795.25 8355972
-94.9221050256939 -99.45447895189895 -795.5 8421765
-94.9221050256939 -98.57436448675216 -795.5 8421765
-94.9221050256939 -97.69425002160538 -795.5 8290179
-94.690021639323 -96.57742617856994 -796 8224386
-94.57397994613756 -95.58218482814074 -796.25 8421763
-94.45793825295212 -94.58909534681948 -796.5 8355970
-94.34189655976667 -93.59815773460615 -796.75 8355970
-94.22585486658122 -92.60937199150075 -797 8224385
-93.99377148021033 -91.50976310132882 -797.5 8158591
-93.645646400654 -90.30255886775225 -798.25 8487556
-93.06543793472677 -88.88016394736643 -799.5 8421762
-92.71731285517043 -87.68802279754543 -800.25 8422017
-92.71731285517043 -86.82835108892405 -800.25 8290431
-92.601271161985 -85.86108403689805 -800.5 8487810
-93.41356301428311 -85.74812412478529 -798.75 8487554
-93.06543793472677 -84.56566638595002 -799.5 8684676
-92.83335454835589 -83.4940317941813 -800 8618884
-92.71731285517043 -82.5299925458172 -800.25 8750469
-92.71731285517043 -81.67032083719582 -800.25 8685189
-92.83335454835589 -80.91178886465526 -800 8816773
-92.71731285517043 -79.95097741995308 -800.25 8620164
-92.36918777561411 -78.79434211041306 -801 8685702
-92.02106269605777 -77.64416240819686 -801.75 8488325
-91.78897930968688 -76.59727431116941 -802.25 8684935
-91.67293761650143 -75.65045001566882 -802.5 8684935
-91.44085423013054 -74.61109346051917 -803 8750728
-91.20877084375965 -73.57604064358539 -803.5 7631988
-91.20877084375965 -72.73035608416562 -803.5 7237230
-91.3248125369451 -71.97612784984094 -803.25 8026747
-91.67293761650143 -71.40050852749057 -802.5 8947850
-92.25314608242866 -70.99704250979072 -801.25 8882057
-92.83335454835589 -70.58281714655116 -800 8750217
-93.18147962791222 -69.98352726401349 -799.25 8881803
-92.94939624154132 -68.94739851252574 -799.75 8816010
-92.71731285517043 -67.91557349925387 -800.25 8816010
-92.71731285517043 -67.05590179063249 -800.25 8947850
-92.601271161985 -66.11338123334778 -800.5 8947850
