VERSION 0.7 
FIELDS x y z rgb 
SIZE 4 4 4 4 
TYPE F F F U 
COUNT 1 1 1 1 
WIDTH 925 
HEIGHT 1 
VIEWPOINT 0 0 0 1 0 0 0 
POINTS 925 
DATA ascii 
10.005962870811581 -55.50252976616549 -798.5 16711680
10.005962870811581 -54.63532651566633 -798.5 16711680
9.993548524818019 -53.70141343481337 -798.75 16711680
9.993548524818019 -52.83528611886818 -798.75 16711680
9.993548524818019 -51.969158802923 -798.75 16711680
9.993548524818019 -51.103031486977805 -798.75 16711680
9.993548524818019 -50.23690417103261 -798.75 16711680
10.005962870811581 -49.43210701267139 -798.5 16711680
10.005962870811581 -48.56490376217223 -798.5 16711680
9.993548524818019 -47.63852222319705 -798.75 16711680
9.993548524818019 -46.772394907251865 -798.75 16711680
9.981134178824457 -45.849241171938594 -799 16711680
9.968719832830894 -44.928239305733264 -799.25 16711680
9.943891140843768 -43.95451475837572 -799.75 16711680
9.931476794850205 -43.03889256494024 -800 16711680
9.919062448856643 -42.12542224061269 -800.25 16711680
9.90664810286308 -41.214103785393085 -800.5 16711680
9.90664810286308 -40.35550801132568 -800.5 16711680
9.90664810286308 -39.49691223725828 -800.5 16711680
9.919062448856643 -38.686735406127205 -800.25 16711680
9.919062448856643 -37.82706369750583 -800.25 16711680
9.931476794850205 -37.01365906271285 -800 16711680
9.931476794850205 -36.15291141953751 -800 16711680
9.919062448856643 -35.24804857164172 -800.25 16711680
9.894233756869516 -34.30229832268738 -800.75 16711680
9.832162026901702 -33.23496180511137 -802 16711680
9.708018566966075 -31.97394762778233 -804.5 16711680
9.521803377062634 -30.535394809009794 -808.25 16711680
9.236273419210692 -28.819235771251478 -814 16711680
8.863843039403807 -26.88895254119928 -821.5 16711680
8.429340929629111 -24.840307070171892 -830.25 16711680
7.945181435880164 -22.72494610476755 -840 16711680
7.485850634118342 -20.762371622042263 -849.25 16711680
7.0761772163307715 -19.012839733033736 -857.5 16711680
6.7534042204981395 -17.56027899697472 -864 16711680
6.517531646620447 -16.38209478823186 -868.75 16711680
6.368559494697694 -15.455692481171802 -871.75 16711680
6.281659072742755 -14.700373208231426 -873.5 16711680
6.232001688768504 -14.044045578279361 -874.5 16711680
6.207172996781378 -13.450125928472943 -875 16711680
6.194758650787816 -12.886334334185378 -875.25 16711680
6.207172996781378 -12.374191374503766 -875 16711680
6.219587342774941 -11.859896545714216 -874.75 16711680
6.244416034762066 -11.366046361457798 -874.25 16711680
6.294073418736318 -10.910933597159701 -873.25 16711680
6.30648776472988 -10.38587942283046 -873 16711680
6.30648776472988 -9.839304669414117 -873 16711680
6.294073418736318 -9.274437140572584 -873.25 16711680
6.25683038075563 -8.677287799096542 -874 16711680
6.219587342774941 -8.086594064944313 -874.75 16711680
6.182344304794253 -7.502355938115901 -875.5 16711680
6.157515612807127 -6.93856245582062 -876 16711680
6.132686920820002 -6.379072711741215 -876.5 16711680
6.120272574826439 -5.835723873979064 -876.75 16711680
6.107858228832876 -5.294526905324852 -877 16711680
6.107858228832876 -4.765167104772017 -877 16711680
6.095443882839313 -4.227197939779712 -877.25 16711680
6.095443882839313 -3.698914073780846 -877.25 16711680
6.095443882839313 -3.1706302077819806 -877.25 16711680
6.095443882839313 -2.6423463417831146 -877.25 16711680
6.095443882839313 -2.114062475784249 -877.25 16711680
6.095443882839313 -1.585778609785383 -877.25 16711680
6.095443882839313 -1.0574947437865172 -877.25 16711680
6.095443882839313 -0.5292108777876516 -877.25 16711680
6.095443882839313 -0.0009270117887858515 -877.25 16711680
6.095443882839313 0.5273568542100799 -877.25 16711680
6.095443882839313 1.0556407202089455 -877.25 16711680
6.095443882839313 1.5839245862078113 -877.25 16711680
6.107858228832876 2.1165103024148375 -877 16711680
6.107858228832876 2.645870102967672 -877 16711680
6.107858228832876 3.175229903520507 -877 16711680
6.095443882839313 3.6970600502032744 -877.25 16711680
6.095443882839313 4.2253439162021404 -877.25 16711680
6.083029536845751 4.743946259223 -877.5 16711680
6.083029536845751 5.271154190667897 -877.5 16711680
6.070615190852188 5.786528730026848 -877.75 16711680
6.070615190852188 6.312660726917776 -877.75 16711680
6.070615190852188 6.838792723808703 -877.75 16711680
6.058200844858625 7.349863524951779 -878 16711680
6.058200844858625 7.874919587288737 -878 16711680
6.045786498865063 8.382762584769905 -878.25 16711680
6.045786498865063 8.906742712552894 -878.25 16711680
6.045786498865063 9.430722840335882 -878.25 16711680
6.045786498865063 9.954702968118871 -878.25 16711680
6.045786498865063 10.47868309590186 -878.25 16711680
6.033372152871499 10.980070486059214 -878.5 16711680
6.033372152871499 11.502974679288233 -878.5 16711680
6.020957806877937 12.001134265783678 -878.75 16711680
6.020957806877937 12.52296252445873 -878.75 16711680
6.008543460884375 13.017894307292268 -879 16711680
6.008543460884375 13.538646631413348 -879 16711680
5.996129114890811 14.030350610584978 -879.25 16711680
5.996129114890811 14.550027000152092 -879.25 16711680
5.996129114890811 15.069703389719203 -879.25 16711680
5.996129114890811 15.589379779286315 -879.25 16711680
6.008543460884375 16.142408252018754 -879 16711680
6.008543460884375 16.663160576139838 -879 16711680
6.020957806877937 17.219416852534184 -878.75 16711680
6.020957806877937 17.741245111209235 -878.75 16711680
6.020957806877937 18.263073369884285 -878.75 16711680
6.033372152871499 18.82363338449451 -878.5 16711680
6.033372152871499 19.34653757772353 -878.5 16711680
6.033372152871499 19.86944177095255 -878.5 16711680
6.033372152871499 20.39234596418157 -878.5 16711680
6.045786498865063 20.958285651561642 -878.25 16711680
6.045786498865063 21.48226577934463 -878.25 16711680
6.045786498865063 22.006245907127617 -878.25 16711680
6.045786498865063 22.53022603491061 -878.25 16711680
6.045786498865063 23.054206162693596 -878.25 16711680
6.033372152871499 23.52977112355569 -878.5 16711680
6.033372152871499 24.052675316784708 -878.5 16711680
6.020957806877937 24.525012473984894 -878.75 16711680
6.008543460884375 24.99519776207714 -879 16711680
5.996129114890811 25.46323118106145 -879.25 16711680
5.983714768897249 25.92911273093782 -879.5 16711680
5.971300422903686 26.39284241170625 -879.75 16711680
5.971300422903686 26.910366932165424 -879.75 16711680
5.971300422903686 27.4278914526246 -879.75 16711680
5.971300422903686 27.945415973083772 -879.75 16711680
5.983714768897249 28.522115006003535 -879.5 16711680
5.996129114890811 29.100965908031235 -879.25 16711680
6.008543460884375 29.681968679166875 -879 16711680
6.020957806877937 30.265123319410453 -878.75 16711680
6.033372152871499 30.850429828761968 -878.5 16711680
6.045786498865063 31.43788820722142 -878.25 16711680
6.033372152871499 31.896238215220006 -878.5 16711680
6.020957806877937 32.35243635411065 -878.75 16711680
5.996129114890811 32.738700635001024 -879.25 16711680
5.958886076910123 33.0518032542292 -880 16711680
5.921643038929435 33.358450266133566 -880.75 16711680
5.8968143469423095 33.72965146326837 -881.25 16711680
5.871985654955184 34.09654892218729 -881.75 16711680
5.847156962968058 34.459142642890335 -882.25 16711680
5.834742616974496 34.89167022159366 -882.5 16711680
5.834742616974496 35.39735946195917 -882.5 16711680
5.8223282709809325 35.82665923700059 -882.75 16711680
5.80991392498737 36.25380714293407 -883 16711680
5.80991392498737 36.757344514191644 -883 16711680
5.797499578993808 37.18126461646322 -883.25 16711680
5.80991392498737 37.764419256706795 -883 16711680
5.80991392498737 38.26795662796437 -883 16711680
5.8223282709809325 38.85433907186985 -882.75 16711680
5.8223282709809325 39.3589523776814 -882.75 16711680
5.834742616974496 39.94856262524879 -882.5 16711680
5.834742616974496 40.4542518656143 -882.5 16711680
5.834742616974496 40.959941105979816 -882.5 16711680
5.847156962968058 41.55385509176308 -882.25 16711680
5.847156962968058 42.06062026668257 -882.25 16711680
5.847156962968058 42.56738544160205 -882.25 16711680
5.8595713089616215 43.1656031656012 -882 16711680
5.871985654955184 43.76597275870828 -881.75 16711680
5.884400000948746 44.3684942209233 -881.5 16711680
5.921643038929435 45.162528257729406 -880.75 16711680
5.958886076910123 45.963017901859324 -880 16711680
5.996129114890811 46.76996315331306 -879.25 16711680
6.020957806877937 47.48545585568713 -878.75 16711680
6.045786498865063 48.205252296277074 -878.25 16711680
6.033372152871499 48.62917239854864 -878.5 16711680
6.020957806877937 49.05094063171228 -878.75 16711680
5.971300422903686 49.16392131190991 -879.75 16711680
5.934057384922998 49.37158234484911 -880.5 16711680
5.884400000948746 49.4684240067372 -881.5 16711680
5.847156962968058 49.6620978904748 -882.25 16711680
5.797499578993808 49.74280053405335 -883.25 16711680
5.760256541013119 49.92248726858936 -884 16711680
5.723013503032431 50.09571839580154 -884.75 16711680
5.685770465051743 50.262493915689916 -885.5 16711680
5.648527427071055 50.42281382825447 -886.25 16711680
5.598870043096803 50.46478282789013 -887.25 16711680
5.561627005116115 50.611115591253096 -888 16711680
5.524383967135427 50.75099274729224 -888.75 16711680
5.487140929154738 50.88441429600756 -889.5 16711680
5.44989789117405 51.011380237399074 -890.25 16711680
5.425069199186924 51.2491655498417 -890.75 16711680
5.400240507199799 51.48264712406844 -891.25 16711680
5.387826161206236 51.83125180756217 -891.5 16711680
5.375411815212674 52.17770462194796 -891.75 16711680
5.362997469219111 52.52200556722581 -892 16711680
5.362997469219111 52.9868092945405 -892 16711680
5.362997469219111 53.45161302185518 -892 16711680
11.172873444352469 -108.68816817413959 -793 16711680
11.159379635844797 -107.66710439441513 -793.25 16711680
11.145885827337125 -106.6481924837986 -793.5 16711680
11.145885827337125 -105.75947054222006 -793.5 16711680
11.132392018829453 -104.74378643526543 -793.75 16711680
11.132392018829453 -103.85614042824086 -793.75 16711680
11.118898210321781 -102.84368412494815 -794 16711680
11.091910593306435 -101.70964532904921 -794.5 16711680
11.078416784798764 -100.70256869852635 -794.75 16711680
11.05142916778342 -99.57606144450519 -795.25 16711680
11.024441550768076 -98.4538579286999 -795.75 16711680
11.010947742260404 -97.45538877460879 -796 16711680
10.98396012524506 -96.34071680068129 -796.5 16711680
10.98396012524506 -95.46490607375038 -796.5 16711680
10.970466316737388 -94.47289252698309 -796.75 16711680
10.970466316737388 -93.59815773460615 -796.75 16711680
10.970466316737388 -92.7234229422292 -796.75 16711680
10.956972508229716 -91.73571313367778 -797 16711680
10.956972508229716 -90.8620542758548 -797 16711680
10.929984891214371 -89.76674912389875 -797.5 16711680
10.916491082706699 -88.78549492267115 -797.75 16711680
10.902997274199027 -87.80639259055148 -798 16711680
10.889503465691355 -86.82944212753975 -798.25 16711680
10.889503465691355 -85.96116294248662 -798.25 16711680
10.889503465691355 -85.0928837574335 -798.25 16711680
10.889503465691355 -84.22460457238037 -798.25 16711680
10.889503465691355 -83.35632538732725 -798.25 16711680
10.889503465691355 -82.48804620227412 -798.25 16711680
10.902997274199027 -81.72090675330182 -798 16711680
10.889503465691355 -80.75148783216787 -798.25 16711680
10.889503465691355 -79.88320864711474 -798.25 16711680
10.889503465691355 -79.01492946206162 -798.25 16711680
10.876009657183683 -78.04981427914355 -798.5 16711680
10.862515848676011 -76.22072364938823 -798.75 16711680
10.862515848676011 -75.35459633344306 -798.75 16711680
10.862515848676011 -74.48846901749786 -798.75 16711680
10.862515848676011 -73.62234170155267 -798.75 16711680
10.862515848676011 -72.75621438560749 -798.75 16711680
10.84902204016834 -71.80078261367514 -799 16711680
10.84902204016834 -70.93573123228393 -799 16711680
10.84902204016834 -70.0706798508927 -799 16711680
10.835528231660668 -69.11955181717624 -799.25 16711680
10.822034423152996 -68.1705756525677 -799.5 16711680
10.822034423152996 -67.30767614028443 -799.5 16711680
10.808540614645324 -66.3619277793378 -799.75 16711680
10.808540614645324 -65.5001042016085 -799.75 16711680
10.808540614645324 -64.63828062387918 -799.75 16711680
10.808540614645324 -63.77645704614987 -799.75 16711680
10.822034423152996 -62.993178578868026 -799.5 16711680
10.822034423152996 -62.13027906658475 -799.5 16711680
10.822034423152996 -61.26737955430147 -799.5 16711680
10.822034423152996 -60.40448004201819 -799.5 16711680
10.822034423152996 -59.54158052973491 -799.5 16711680
10.822034423152996 -58.67868101745163 -799.5 16711680
10.822034423152996 -57.81578150516835 -799.5 16711680
10.822034423152996 -56.95288199288507 -799.5 16711680
10.822034423152996 -56.08998248060179 -799.5 16711680
10.822034423152996 -55.22708296831851 -799.5 16711680
10.822034423152996 -54.364183456035235 -799.5 16711680
10.822034423152996 -53.50128394375195 -799.5 16711680
10.808540614645324 -52.57275053566884 -799.75 16711680
10.808540614645324 -51.71092695793953 -799.75 16711680
10.808540614645324 -50.84910338021022 -799.75 16711680
10.808540614645324 -49.9872798024809 -799.75 16711680
10.79504680613765 -49.06412606716763 -800 16711680
10.79504680613765 -48.20337842399229 -800 16711680
10.79504680613765 -47.34263078081695 -800 16711680
10.79504680613765 -46.4818831376416 -800 16711680
10.79504680613765 -45.621135494466266 -800 16711680
10.79504680613765 -44.76038785129092 -800 16711680
10.79504680613765 -43.89964020811558 -800 16711680
10.79504680613765 -43.03889256494024 -800 16711680
10.79504680613765 -42.1781449217649 -800 16711680
10.79504680613765 -41.31739727858956 -800 16711680
10.781552997629978 -40.406078823369945 -800.25 16711680
10.781552997629978 -39.546407114748575 -800.25 16711680
10.781552997629978 -38.686735406127205 -800.25 16711680
10.79504680613765 -37.87440670588819 -800 16711680
10.79504680613765 -37.01365906271285 -800 16711680
10.79504680613765 -36.15291141953751 -800 16711680
10.781552997629978 -35.24804857164172 -800.25 16711680
10.754565380614634 -34.30229832268738 -800.75 16711680
10.700590146583947 -33.27692514072388 -801.75 16711680
10.579145870014898 -32.05572242989942 -804 16711680
10.39023255090749 -30.654829208523523 -807.5 16711680
10.106862572246376 -29.012913431004513 -812.75 16711680
9.715542125523886 -27.114910125579108 -820 16711680
9.229765019247692 -25.023225384385235 -829 16711680
8.717000295956153 -22.937992474499744 -838.5 16711680
8.190741764156943 -20.900098796981183 -848.25 16711680
7.3676194451889465 -17.624838846228304 -863.5 16711680
7.097743275035506 -16.413298778304682 -868.5 16711680
6.908829955928097 -15.425564425652949 -872 16711680
6.814373296374392 -14.671321087266541 -873.75 16711680
6.746904253836032 -13.988093205457531 -875 16711680
6.719916636820687 -13.396325424759052 -875.5 16711680
6.719916636820687 -12.860510016882401 -875.5 16711680
6.73341044532836 -12.349442991754758 -875.25 16711680
6.746904253836032 -11.836224097519178 -875 16711680
6.773891870851376 -11.343449847816728 -874.5 16711680
6.8008794878667205 -10.846371859898401 -874 16711680
6.827867104882064 -10.344990133764197 -873.5 16711680
6.827867104882064 -9.800567249455794 -873.5 16711680
6.814373296374392 -9.237851589722199 -873.75 16711680
6.787385679359048 -8.660070958225317 -874.25 16711680
6.746904253836032 -8.070453158627059 -875 16711680
6.719916636820687 -7.502355938115901 -875.5 16711680
6.6929290198053435 -6.93856245582062 -876 16711680
6.679435211297672 -6.391985814396562 -876.25 16711680
6.66594140279 -5.847561042080441 -876.5 16711680
6.66594140279 -5.316049372419668 -876.5 16711680
6.652447594282328 -4.774852403765456 -876.75 16711680
6.652447594282328 -4.244416668658652 -876.75 16711680
6.652447594282328 -3.7139809335518477 -876.75 16711680
6.638953785774655 -3.177087703113512 -877 16711680
6.625459977266983 -2.6423463417831146 -877.25 16711680
6.625459977266983 -2.114062475784249 -877.25 16711680
6.611966168759311 -1.582548918115759 -877.5 16711680
6.611966168759311 -1.0553409866708625 -877.5 16711680
6.611966168759311 -0.528133055225966 -877.5 16711680
6.611966168759311 -0.0009251237810693834 -877.5 16711680
6.611966168759311 0.5262828076638272 -877.5 16711680
6.611966168759311 1.0534907391087236 -877.5 16711680
6.611966168759311 1.5806986705536203 -877.5 16711680
6.611966168759311 2.1079066019985166 -877.5 16711680
6.611966168759311 2.6351145334434136 -877.5 16711680
6.611966168759311 3.16232246488831 -877.5 16711680
6.611966168759311 3.6895303963332067 -877.5 16711680
6.598472360251639 4.208132739354066 -877.75 16711680
6.598472360251639 4.734264736244993 -877.75 16711680
6.584978551743967 5.249639275603946 -878 16711680
6.584978551743967 5.774695337940904 -878 16711680
6.584978551743967 6.299751400277862 -878 16711680
6.584978551743967 6.82480746261482 -878 16711680
6.584978551743967 7.349863524951779 -878 16711680
6.584978551743967 7.874919587288737 -878 16711680
6.584978551743967 8.399975649625695 -878 16711680
6.584978551743967 8.925031711962653 -878 16711680
6.584978551743967 9.450087774299611 -878 16711680
6.584978551743967 9.975143836636569 -878 16711680
6.571484743236295 10.47868309590186 -878.25 16711680
6.571484743236295 11.00266322368485 -878.25 16711680
6.571484743236295 11.52664335146784 -878.25 16711680
6.571484743236295 12.050623479250827 -878.25 16711680
6.557990934728623 12.548783065746273 -878.5 16711680
6.557990934728623 13.071687258975293 -878.5 16711680
6.544497126220951 13.566619041808831 -878.75 16711680
6.544497126220951 14.088447300483882 -878.75 16711680
6.531003317713279 14.580151279655512 -879 16711680
6.531003317713279 15.100903603776594 -879 16711680
6.544497126220951 15.653932076509031 -878.75 16711680
6.544497126220951 16.175760335184084 -878.75 16711680
6.557990934728623 16.73201661157843 -878.5 16711680
6.557990934728623 17.25492080480745 -878.5 16711680
6.571484743236295 17.814404884863706 -878.25 16711680
6.571484743236295 18.338385012646697 -878.25 16711680
6.584978551743967 18.90109689636486 -878 16711680
6.584978551743967 19.426152958701817 -878 16711680
6.584978551743967 19.951209021038775 -878 16711680
6.584978551743967 20.476265083375733 -878 16711680
6.584978551743967 21.00132114571269 -878 16711680
6.584978551743967 21.52637720804965 -878 16711680
6.584978551743967 22.051433270386607 -878 16711680
6.571484743236295 22.53022603491061 -878.25 16711680
6.571484743236295 23.054206162693596 -878.25 16711680
6.557990934728623 23.52977112355569 -878.5 16711680
6.557990934728623 24.052675316784708 -878.5 16711680
6.544497126220951 24.525012473984894 -878.75 16711680
6.544497126220951 25.046840732659945 -878.75 16711680
6.531003317713279 25.515950086198224 -879 16711680
6.531003317713279 26.036702410319304 -879 16711680
6.531003317713279 26.557454734440384 -879 16711680
6.517509509205607 27.022260349762785 -879.25 16711680
6.517509509205607 27.5419367393299 -879.25 16711680
6.517509509205607 28.06161312889701 -879.25 16711680
6.517509509205607 28.581289518464125 -879.25 16711680
6.531003317713279 29.16121635504579 -879 16711680
6.544497126220951 29.743295060735402 -878.75 16711680
6.571484743236295 30.389927951655444 -878.25 16711680
6.584978551743967 30.977386330114896 -878 16711680
6.584978551743967 31.502442392451854 -878 16711680
6.584978551743967 32.02749845478881 -878 16711680
6.557990934728623 32.41914240844903 -878.5 16711680
6.531003317713279 32.806482623893366 -879 16711680
6.490521892190262 33.120661177675515 -879.75 16711680
6.4635342751749185 33.498317982134125 -880.25 16711680
6.423052849651902 33.80066125582262 -881 16711680
6.396065232636558 34.168634649295505 -881.5 16711680
6.382571424128886 34.60546596621471 -881.75 16711680
6.369077615621214 35.04014541402597 -882 16711680
6.3555838071135415 35.4726729927293 -882.25 16711680
6.34208999860587 35.90304870232468 -882.5 16711680
6.34208999860587 36.408737942690195 -882.5 16711680
6.328596190098198 36.835885848623676 -882.75 16711680
6.328596190098198 37.34049915443522 -882.75 16711680
6.328596190098198 37.84511246024677 -882.75 16711680
6.328596190098198 38.349725766058306 -882.75 16711680
6.34208999860587 38.937184144517765 -882.5 16711680
6.34208999860587 39.44287338488328 -882.5 16711680
6.3555838071135415 40.03355956700464 -882.25 16711680
6.3555838071135415 40.54032474192412 -882.25 16711680
6.3555838071135415 41.0470899168436 -882.25 16711680
6.3555838071135415 41.55385509176308 -882.25 16711680
6.3555838071135415 42.06062026668257 -882.25 16711680
6.369077615621214 42.657762056127744 -882 16711680
6.382571424128886 43.25705571468086 -881.75 16711680
6.423052849651902 44.043558209609174 -881 16711680
6.47702808368259 44.93012073004891 -880 16711680
6.557990934728623 46.01465143240355 -878.5 16711680
6.652447594282328 47.20784963670135 -876.75 16711680
6.773891870851376 48.60977536845373 -874.5 16711680
6.881842338912753 49.93315976577409 -872.5 16711680
0 0 -1000 16711680
0 0 -1000 16711680
0 0 -1000 16711680
0 0 -1000 16711680
0 0 -1000 16711680
0 0 -1000 16711680
0 0 -1000 16711680
0 0 -1000 16711680
6.34208999860587 50.56803667292456 -882.5 16711680
6.261127147559837 50.421720901631055 -884 16711680
6.193658105021477 50.37223735218706 -885.25 16711680
6.139682870990789 50.42281382825447 -886.25 16711680
6.072213828452429 50.35288752228506 -887.5 16711680
6.031732402929412 50.49814435109405 -888.25 16711680
5.991250977406397 50.63694557257922 -889 16711680
5.95076955188338 50.769291186740574 -889.75 16711680
5.9102881263603635 50.89518119357812 -890.5 16711680
5.88330050934502 51.13189057146677 -891 16711680
5.856312892329676 51.364296211139546 -891.5 16711680
5.842819083822003 51.711824960079305 -891.75 16711680
5.829325275314331 52.05720183991113 -892 16711680
5.829325275314331 52.52200556722581 -892 16711680
5.815831466806659 52.86415464339573 -892.25 16711680
5.815831466806659 53.32788243615644 -892.25 16711680
12.270694200339914 -110.52589082442698 -789.5 16711680
12.212401116252789 -109.09919405383299 -790.5 16711680
12.154108032165663 -107.68110475967075 -791.5 16711680
12.095814948078537 -106.27162294194025 -792.5 16711680
12.052095135013193 -104.9977107660176 -793.25 16711680
12.02294859296963 -103.85614042824086 -793.75 16711680
11.993802050926067 -102.71887382868002 -794.25 16711680
11.979228779904286 -101.70964532904921 -794.5 16711680
11.964655508882505 -100.70256869852635 -794.75 16711680
11.935508966838942 -99.57606144450519 -795.25 16711680
11.92093569581716 -98.57436448675216 -795.5 16711680
11.891789153773598 -97.45538877460879 -796 16711680
11.877215882751816 -96.45907148962561 -796.25 16711680
11.862642611730037 -95.46490607375038 -796.5 16711680
11.848069340708255 -94.47289252698309 -796.75 16711680
11.833496069686474 -93.48303084932373 -797 16711680
11.818922798664692 -92.4953210407723 -797.25 16711680
11.804349527642911 -91.50976310132882 -797.5 16711680
11.78977625662113 -90.52635703099328 -797.75 16711680
11.760629714577567 -89.43427968269913 -798.25 16711680
11.760629714577567 -88.566000497646 -798.25 16711680
11.746056443555785 -87.58905003463427 -798.5 16711680
11.731483172534004 -86.61425144073048 -798.75 16711680
11.731483172534004 -85.74812412478529 -798.75 16711680
11.716909901512222 -84.77655333454341 -799 16711680
11.716909901512222 -83.9115019531522 -799 16711680
11.716909901512222 -83.04645057176097 -799 16711680
11.716909901512222 -82.18139919036976 -799 16711680
11.716909901512222 -81.31634780897855 -799 16711680
11.716909901512222 -80.45129642758732 -799 16711680
11.702336630490441 -79.48725717922322 -799.25 16711680
11.702336630490441 -78.62328173238598 -799.25 16711680
11.702336630490441 -77.75930628554873 -799.25 16711680
11.702336630490441 -76.89533083871147 -799.25 16711680
11.716909901512222 -76.12603952063124 -799 16711680
11.716909901512222 -75.26098813924001 -799 16711680
11.731483172534004 -74.48846901749786 -798.75 16711680
11.746056443555785 -73.71379802664777 -798.5 16711680
11.746056443555785 -72.84659477614862 -798.5 16711680
11.760629714577567 -72.06869598163662 -798.25 16711680
11.760629714577567 -71.2004167965835 -798.25 16711680
11.760629714577567 -70.33213761153037 -798.25 16711680
11.760629714577567 -69.46385842647724 -798.25 16711680
11.746056443555785 -68.51057852365284 -798.5 16711680
11.731483172534004 -67.55945048993637 -798.75 16711680
11.716909901512222 -66.61047432532783 -799 16711680
11.702336630490441 -65.66365002982724 -799.25 16711680
11.702336630490441 -64.79967458299 -799.25 16711680
11.68776335946866 -63.85607809115131 -799.5 16711680
11.68776335946866 -62.993178578868026 -799.5 16711680
11.702336630490441 -62.207748242478246 -799.25 16711680
11.702336630490441 -61.343772795641 -799.25 16711680
11.702336630490441 -60.47979734880375 -799.25 16711680
11.716909901512222 -59.69006327419809 -799 16711680
11.716909901512222 -58.82501189280687 -799 16711680
11.731483172534004 -58.03205001453931 -798.75 16711680
11.746056443555785 -57.2369362671638 -798.5 16711680
11.746056443555785 -56.36973301666465 -798.5 16711680
11.760629714577567 -55.57139146562723 -798.25 16711680
11.760629714577567 -54.7031122805741 -798.25 16711680
11.775202985599348 -53.901542925874786 -798 16711680
11.775202985599348 -53.03218780626769 -798 16711680
11.775202985599348 -52.16283268666059 -798 16711680
11.775202985599348 -51.2934775670535 -798 16711680
11.775202985599348 -50.4241224474464 -798 16711680
11.760629714577567 -49.49343717025535 -798.25 16711680
11.760629714577567 -48.62515798520222 -798.25 16711680
11.746056443555785 -47.69770051167308 -798.5 16711680
11.746056443555785 -46.83049726117392 -798.5 16711680
11.731483172534004 -45.90626759130668 -798.75 16711680
11.716909901512222 -44.984189790547376 -799 16711680
11.702336630490441 -44.06426385889601 -799.25 16711680
11.68776335946866 -43.14648979635259 -799.5 16711680
11.673190088446878 -42.2308676029171 -799.75 16711680
11.673190088446878 -41.3690440251878 -799.75 16711680
11.658616817425097 -40.456649635414216 -800 16711680
11.658616817425097 -39.59590199223887 -800 16711680
11.644043546403315 -38.686735406127205 -800.25 16711680
11.644043546403315 -37.82706369750583 -800.25 16711680
11.644043546403315 -36.96739198888446 -800.25 16711680
11.629470275381534 -36.062529140988666 -800.5 16711680
11.614897004359753 -35.15981816220081 -800.75 16711680
11.58575046231619 -34.21621978235441 -801.25 16711680
11.527457378229064 -33.19299846949885 -802.25 16711680
11.410871210054813 -32.01483502884088 -804.25 16711680
11.206845415749873 -30.615017742018946 -807.75 16711680
10.915379995314247 -29.012913431004513 -812.75 16711680
10.492755135682588 -27.114910125579108 -820 16711680
9.982690649920238 -25.059809047227905 -828.75 16711680
9.428906351092547 -22.973500202788443 -838.25 16711680
8.875122052264855 -20.96896238445064 -847.75 16711680
8.379630837524289 -19.17961902893754 -856.25 16711680
7.971579248914409 -17.657118770855096 -863.25 16711680
7.680113828478782 -16.444502768377507 -868.25 16711680
7.490661305195625 -15.485820536690655 -871.5 16711680
7.374075137021373 -14.700373208231426 -873.5 16711680
7.301208781912466 -14.016069391868447 -874.75 16711680
7.272062239868904 -13.423225676615997 -875.25 16711680
7.257488968847123 -12.860510016882401 -875.5 16711680
7.257488968847123 -12.324694609005752 -875.5 16711680
7.257488968847123 -11.7888792011291 -875.5 16711680
7.257488968847123 -11.253063793252451 -875.5 16711680
7.2429156978253415 -10.695727806288701 -875.75 16711680
7.22834242680356 -10.14054368843289 -876 16711680
7.22834242680356 -9.606880149664178 -876 16711680
7.213769155781779 -9.054923835470273 -876.25 16711680
7.199195884759997 -8.505119390384309 -876.5 16711680
7.199195884759997 -7.9736077207235345 -876.5 16711680
7.199195884759997 -7.442096051062761 -876.5 16711680
7.199195884759997 -6.910584381401988 -876.5 16711680
7.199195884759997 -6.379072711741215 -876.5 16711680
7.213769155781779 -5.859398210181819 -876.25 16711680
7.199195884759997 -5.316049372419668 -876.5 16711680
7.199195884759997 -4.784537702758895 -876.5 16711680
7.199195884759997 -4.253026033098122 -876.5 16711680
7.199195884759997 -3.721514363437348 -876.5 16711680
7.184622613738216 -3.1835451984450436 -876.75 16711680
7.184622613738216 -2.6531094633382395 -876.75 16711680
7.184622613738216 -2.1226737282314354 -876.75 16711680
7.1700493427164345 -1.589008301455007 -877 16711680
7.1700493427164345 -1.059648500902172 -877 16711680
7.1700493427164345 -0.5302887003493373 -877 16711680
7.1700493427164345 -0.0009288997965023196 -877 16711680
7.1700493427164345 0.5284309007563326 -877 16711680
7.1700493427164345 1.0577907013091674 -877 16711680
7.1700493427164345 1.5871505018620025 -877 16711680
7.155476071694653 2.1122084522066773 -877.25 16711680
7.155476071694653 2.640492318205543 -877.25 16711680
7.140902800672872 3.16232246488831 -877.5 16711680
7.140902800672872 3.6895303963332067 -877.5 16711680
7.12632952965109 4.208132739354066 -877.75 16711680
7.111756258629309 4.724583213266987 -878 16711680
7.111756258629309 5.249639275603946 -878 16711680
7.097182987607527 5.76286194585496 -878.25 16711680
7.097182987607527 6.286842073637948 -878.25 16711680
7.097182987607527 6.810822201420938 -878.25 16711680
7.082609716585746 7.319741133456074 -878.5 16711680
7.082609716585746 7.842645326685094 -878.5 16711680
7.082609716585746 8.365549519914115 -878.5 16711680
7.082609716585746 8.888453713143134 -878.5 16711680
7.082609716585746 9.411357906372155 -878.5 16711680
7.082609716585746 9.934262099601174 -878.5 16711680
7.082609716585746 10.457166292830195 -878.5 16711680
7.082609716585746 10.980070486059214 -878.5 16711680
7.082609716585746 11.502974679288233 -878.5 16711680
7.082609716585746 12.025878872517254 -878.5 16711680
7.082609716585746 12.548783065746273 -878.5 16711680
7.082609716585746 13.071687258975293 -878.5 16711680
7.082609716585746 13.594591452204313 -878.5 16711680
7.082609716585746 14.117495645433333 -878.5 16711680
7.082609716585746 14.640399838662352 -878.5 16711680
7.082609716585746 15.163304031891373 -878.5 16711680
7.082609716585746 15.68620822512039 -878.5 16711680
7.097182987607527 16.24246450151474 -878.25 16711680
7.097182987607527 16.766444629297727 -878.25 16711680
7.111756258629309 17.325928709353985 -878 16711680
7.111756258629309 17.850984771690943 -878 16711680
7.12632952965109 18.413696655409105 -877.75 16711680
7.12632952965109 18.939828652300033 -877.75 16711680
7.111756258629309 19.426152958701817 -878 16711680
7.111756258629309 19.951209021038775 -878 16711680
7.111756258629309 20.476265083375733 -878 16711680
7.097182987607527 20.958285651561642 -878.25 16711680
7.097182987607527 21.48226577934463 -878.25 16711680
7.082609716585746 21.961058543868628 -878.5 16711680
7.082609716585746 22.48396273709765 -878.5 16711680
7.068036445563965 22.959527697959743 -878.75 16711680
7.068036445563965 23.481355956634793 -878.75 16711680
7.068036445563965 24.003184215309844 -878.75 16711680
7.053463174542183 24.47444543795606 -879 16711680
7.053463174542183 24.99519776207714 -879 16711680
7.053463174542183 25.515950086198224 -879 16711680
7.038889903520402 25.982907570628562 -879.25 16711680
7.02431663249862 26.447713185950963 -879.5 16711680
7.02431663249862 26.966313640964106 -879.5 16711680
7.009743361476839 27.4278914526246 -879.75 16711680
7.009743361476839 27.945415973083772 -879.75 16711680
7.009743361476839 28.462940493542945 -879.75 16711680
7.02431663249862 29.040715461016678 -879.5 16711680
7.038889903520402 29.620642297598348 -879.25 16711680
7.053463174542183 30.202721003287955 -879 16711680
7.068036445563965 30.786951578085503 -878.75 16711680
7.082609716585746 31.37333402199099 -878.5 16711680
7.068036445563965 31.830608095435604 -878.75 16711680
7.038889903520402 32.21902424543391 -879.25 16711680
7.009743361476839 32.60313665721634 -879.75 16711680
6.966023548411495 32.91408740733658 -880.5 16711680
6.936877006367933 33.28851640813328 -881 16711680
6.90773046432437 33.65864167071412 -881.5 16711680
6.878583922280807 34.02446319507907 -882 16711680
6.864010651259026 34.459142642890335 -882.25 16711680
6.849437380237244 34.89167022159366 -882.5 16711680
6.849437380237244 35.39735946195917 -882.5 16711680
6.834864109215463 35.82665923700059 -882.75 16711680
6.834864109215463 36.33127254281214 -882.75 16711680
6.834864109215463 36.835885848623676 -882.75 16711680
6.8202908381936815 37.260881885449216 -883 16711680
6.8202908381936815 37.764419256706795 -883 16711680
6.8202908381936815 38.26795662796437 -883 16711680
6.834864109215463 38.85433907186985 -882.75 16711680
6.834864109215463 39.3589523776814 -882.75 16711680
6.834864109215463 39.86356568349294 -882.75 16711680
6.834864109215463 40.36817898930448 -882.75 16711680
6.834864109215463 40.87279229511603 -882.75 16711680
6.834864109215463 41.377405600927574 -882.75 16711680
6.834864109215463 41.88201890673911 -882.75 16711680
6.849437380237244 42.477008827076354 -882.5 16711680
6.878583922280807 43.1656031656012 -882 16711680
6.951450277389714 44.13608669324281 -880.75 16711680
7.053463174542183 45.304538402799324 -879 16711680
7.199195884759997 46.77209425433611 -876.5 16711680
7.403221679064936 48.64419394613445 -873 16711680
7.650967286435219 50.83691647099245 -868.75 16711680
7.898712893805503 53.066220770685405 -864.5 16711680
0 0 -1000 16711680
0 0 -1000 16711680
0 0 -1000 16711680
0 0 -1000 16711680
0 0 -1000 16711680
0 0 -1000 16711680
0 0 -1000 16711680
0 0 -1000 16711680
0 0 -1000 16711680
0 0 -1000 16711680
0 0 -1000 16711680
6.791144296150119 51.641826909816665 -883.5 16711680
6.689131398997649 51.359945272730755 -885.25 16711680
6.601691772866961 51.17597179204833 -886.75 16711680
6.514252146736273 50.97908709671827 -888.25 16711680
6.455959062649147 50.999537405274545 -889.25 16711680
6.412239249583803 51.12757928122003 -890 16711680
6.353946165496677 51.13189057146677 -891 16711680
6.3247996234531145 51.364296211139546 -891.5 16711680
6.28107981038777 51.472971265113586 -892.25 16711680
6.251933268344208 51.69569349380063 -892.75 16711680
6.2227867263006456 51.91411198427181 -893.25 16711680
6.193640184257083 52.12822673652711 -893.75 16711680
6.179066913235301 52.46176833626527 -894 16711680
12.866546966502137 -107.90057275258786 -794.5 16711680
12.882199700038028 -107.14634451826318 -794.25 16711680
12.882199700038028 -106.26085038034655 -794.25 16711680
12.882199700038028 -105.37535624242992 -794.25 16711680
12.882199700038028 -104.48986210451328 -794.25 16711680
12.882199700038028 -103.60436796659666 -794.25 16711680
12.882199700038028 -102.71887382868002 -794.25 16711680
12.882199700038028 -101.83337969076338 -794.25 16711680
12.882199700038028 -100.94788555284676 -794.25 16711680
12.866546966502137 -99.94080892232388 -794.5 16711680
12.866546966502137 -99.05639071896123 -794.5 16711680
12.850894232966246 -98.05254189210027 -794.75 16711680
12.835241499430355 -97.05084493434724 -795 16711680
12.819588765894466 -96.05129984570216 -795.25 16711680
12.788283298822684 -94.93770380632863 -795.75 16711680
12.772630565286793 -93.9435383904534 -796 16711680
12.756977831750902 -92.9515248436861 -796.25 16711680
12.741325098215011 -91.96166316602674 -796.5 16711680
12.72567236467912 -90.97395335747532 -796.75 16711680
12.72567236467912 -90.09921856509838 -796.75 16711680
12.72567236467912 -89.22448377272144 -796.75 16711680
12.72567236467912 -88.3497489803445 -796.75 16711680
12.72567236467912 -87.47501418796756 -796.75 16711680
12.72567236467912 -86.60027939559062 -796.75 16711680
12.710019631143231 -85.62010112891699 -797 16711680
12.710019631143231 -84.74644227109401 -797 16711680
12.710019631143231 -83.87278341327104 -797 16711680
12.710019631143231 -82.99912455544806 -797 16711680
12.710019631143231 -82.12546569762509 -797 16711680
12.710019631143231 -81.25180683980213 -797 16711680
12.69436689760734 -80.27916011500628 -797.25 16711680
12.710019631143231 -79.50448912415618 -797 16711680
12.710019631143231 -78.6308302663332 -797 16711680
12.710019631143231 -77.75717140851023 -797 16711680
12.72567236467912 -76.97819667944427 -796.75 16711680
12.741325098215011 -76.19707008127037 -796.5 16711680
12.741325098215011 -75.32125935433946 -796.5 16711680
12.756977831750902 -74.53690495250365 -796.25 16711680
12.772630565286793 -73.75039868155989 -796 16711680
12.772630565286793 -72.87243608552104 -796 16711680
12.788283298822684 -72.08270201091538 -795.75 16711680
12.788283298822684 -71.20366348032256 -795.75 16711680
12.788283298822684 -70.32462494972975 -795.75 16711680
12.772630565286793 -69.36058570136565 -796 16711680
12.756977831750902 -68.39869832210948 -796.25 16711680
12.756977831750902 -67.5218116606246 -796.25 16711680
12.741325098215011 -66.56315208503035 -796.5 16711680
12.741325098215011 -65.68734135809945 -796.5 16711680
12.741325098215011 -64.81153063116854 -796.5 16711680
12.741325098215011 -63.93571990423763 -796.5 16711680
12.741325098215011 -63.059909177306714 -796.5 16711680
12.741325098215011 -62.18409845037581 -796.5 16711680
12.741325098215011 -61.3082877234449 -796.5 16711680
12.741325098215011 -60.432476996513984 -796.5 16711680
12.741325098215011 -59.556666269583076 -796.5 16711680
12.741325098215011 -58.68085554265217 -796.5 16711680
12.741325098215011 -57.80504481572126 -796.5 16711680
12.72567236467912 -56.859296454774636 -796.75 16711680
12.72567236467912 -55.984561662397695 -796.75 16711680
12.710019631143231 -55.04204110511298 -797 16711680
12.69436689760734 -54.1016724169362 -797.25 16711680
12.69436689760734 -53.229089493667196 -797.25 16711680
12.67871416407145 -52.29194860915233 -797.5 16711680
12.67871416407145 -51.420441620437295 -797.5 16711680
12.67871416407145 -50.54893463172226 -797.5 16711680
12.67871416407145 -49.67742764300723 -797.5 16711680
12.69436689760734 -48.86617487732218 -797.25 16711680
12.69436689760734 -47.99359195405318 -797.25 16711680
12.69436689760734 -47.12100903078418 -797.25 16711680
12.67871416407145 -46.191399688147094 -797.5 16711680
12.663061430535558 -45.26394221461795 -797.75 16711680
12.647408696999667 -44.33863661019674 -798 16711680
12.616103229927885 -43.361684259177295 -798.5 16711680
12.584797762856105 -42.38903564637372 -799 16711680
12.553492295784324 -41.42069077178603 -799.5 16711680
12.522186828712542 -40.456649635414216 -800 16711680
12.49088136164076 -39.49691223725828 -800.5 16711680
12.47522862810487 -38.589897520254546 -800.75 16711680
12.45957589456898 -37.68503467235875 -801 16711680
12.443923161033089 -36.782323693570895 -801.25 16711680
12.428270427497198 -35.88176458389098 -801.5 16711680
12.412617693961307 -34.983357343319 -801.75 16711680
12.381312226889525 -34.044062701688475 -802.25 16711680
12.318701292745963 -33.025145127048795 -803.25 16711680
12.193479424458838 -31.851285424606694 -805.25 16711680
11.98999388849226 -30.495583342505217 -808.5 16711680
11.661286484238556 -28.857971303202085 -813.75 16711680
11.238662678769506 -27.03959093078583 -820.5 16711680
10.706469738549224 -25.023225384385235 -829 16711680
10.127318597721269 -22.973500202788443 -838.25 16711680
9.532514723357423 -20.96896238445064 -847.75 16711680
9.01597451667303 -19.212974888118303 -856 16711680
8.593350711203982 -17.72167862010868 -862.75 16711680
8.264643306950278 -16.47570675845033 -868 16711680
8.0611577709837 -15.51594859220951 -871.25 16711680
7.935935902696573 -14.729425329196308 -873.25 16711680
7.85767223501712 -14.044045578279361 -874.5 16711680
7.810714034409449 -13.423225676615997 -875.25 16711680
7.795061300873558 -12.860510016882401 -875.5 16711680
7.779408567337667 -12.299946226256743 -875.75 16711680
7.763755833801776 -11.741534304739025 -876 16711680
7.763755833801776 -11.207870765970313 -876 16711680
7.748103100265886 -10.652686648114502 -876.25 16711680
7.732450366729995 -10.099654399366628 -876.5 16711680
7.732450366729995 -9.568142729705855 -876.5 16711680
7.716797633194104 -9.018338284619889 -876.75 16711680
7.716797633194104 -8.487902549513084 -876.75 16711680
7.732450366729995 -7.9736077207235345 -876.5 16711680
7.732450366729995 -7.442096051062761 -876.5 16711680
7.732450366729995 -6.910584381401988 -876.5 16711680
7.732450366729995 -6.379072711741215 -876.5 16711680
7.748103100265886 -5.859398210181819 -876.25 16711680
7.748103100265886 -5.326810605967077 -876.25 16711680
7.748103100265886 -4.794223001752334 -876.25 16711680
7.732450366729995 -4.253026033098122 -876.5 16711680
7.732450366729995 -3.721514363437348 -876.5 16711680
7.732450366729995 -3.190002693776575 -876.5 16711680
7.732450366729995 -2.658491024115802 -876.5 16711680
7.732450366729995 -2.1269793544550284 -876.5 16711680
7.732450366729995 -1.595467684794255 -876.5 16711680
7.732450366729995 -1.0639560151334817 -876.5 16711680
7.732450366729995 -0.5324443454727086 -876.5 16711680
7.732450366729995 -0.0009326758119352559 -876.5 16711680
7.716797633194104 0.5295049473025853 -876.75 16711680
7.716797633194104 1.0599406824093893 -876.75 16711680
7.716797633194104 1.5903764175161934 -876.75 16711680
7.701144899658213 2.1165103024148375 -877 16711680
7.701144899658213 2.645870102967672 -877 16711680
7.701144899658213 3.175229903520507 -877 16711680
7.701144899658213 3.704589704073342 -877 16711680
7.685492166122323 4.2253439162021404 -877.25 16711680
7.685492166122323 4.753627782201006 -877.25 16711680
7.685492166122323 5.281911648199872 -877.25 16711680
7.669839432586432 5.798362122112793 -877.5 16711680
7.669839432586432 6.32557005355769 -877.5 16711680
7.654186699050541 6.838792723808703 -877.75 16711680
7.654186699050541 7.364924720699631 -877.75 16711680
7.63853396551465 7.874919587288737 -878 16711680
7.63853396551465 8.399975649625695 -878 16711680
7.63853396551465 8.925031711962653 -878 16711680
7.62288123197876 9.430722840335882 -878.25 16711680
7.62288123197876 9.954702968118871 -878.25 16711680
7.62288123197876 10.47868309590186 -878.25 16711680
7.62288123197876 11.00266322368485 -878.25 16711680
7.62288123197876 11.52664335146784 -878.25 16711680
7.62288123197876 12.050623479250827 -878.25 16711680
7.62288123197876 12.574603607033817 -878.25 16711680
7.62288123197876 13.098583734816806 -878.25 16711680
7.62288123197876 13.622563862599796 -878.25 16711680
7.62288123197876 14.146543990382785 -878.25 16711680
7.62288123197876 14.670524118165773 -878.25 16711680
7.62288123197876 15.194504245948762 -878.25 16711680
7.63853396551465 15.750760522343109 -878 16711680
7.654186699050541 16.309168667845395 -877.75 16711680
7.669839432586432 16.86972868245562 -877.5 16711680
7.685492166122323 17.43244056617378 -877.25 16711680
7.701144899658213 17.997304318999884 -877 16711680
7.701144899658213 18.52666411955272 -877 16711680
7.701144899658213 19.056023920105552 -877 16711680
7.685492166122323 19.545576030169247 -877.25 16711680
7.669839432586432 20.032976271124998 -877.5 16711680
7.654186699050541 20.518224642972815 -877.75 16711680
7.63853396551465 21.00132114571269 -878 16711680
7.62288123197876 21.48226577934463 -878.25 16711680
7.607228498442869 21.961058543868628 -878.5 16711680
7.591575764906978 22.437699439284692 -878.75 16711680
7.575923031371088 22.912188465592816 -879 16711680
7.560270297835197 23.384525622793 -879.25 16711680
7.560270297835197 23.904202012360113 -879.25 16711680
7.5446175642993065 24.373311365898388 -879.5 16711680
7.528964830763416 24.84026885032873 -879.75 16711680
7.513312097227526 25.30507446565113 -880 16711680
7.497659363691635 25.76772821186559 -880.25 16711680
7.482006630155744 26.228230088972115 -880.5 16711680
7.482006630155744 26.742526805769383 -880.5 16711680
7.466353896619853 27.199800879214 -880.75 16711680
7.466353896619853 27.713021661457297 -880.75 16711680
7.482006630155744 28.285416956161182 -880.5 16711680
7.497659363691635 28.859964119973007 -880.25 16711680
7.513312097227526 29.43666315289277 -880 16711680
7.5446175642993065 30.077916371042964 -879.5 16711680
7.560270297835197 30.65999507673257 -879.25 16711680
7.560270297835197 31.179671466299684 -879.25 16711680
7.5446175642993065 31.633717736082392 -879.5 16711680
7.513312097227526 32.018906082418795 -880 16711680
7.466353896619853 32.33200870164697 -880.75 16711680
7.435048429548072 32.707513636997646 -881.25 16711680
7.3880902289404 33.008780976132165 -882 16711680
7.372437495404509 33.44561229305137 -882.25 16711680
7.356784761868618 33.88029174086263 -882.5 16711680
7.341132028332728 34.31281931956596 -882.75 16711680
7.341132028332728 34.8174326253775 -882.75 16711680
7.341132028332728 35.322045931189045 -882.75 16711680
7.325479294796837 35.75026977167649 -883 16711680
7.325479294796837 36.25380714293407 -883 16711680
7.325479294796837 36.757344514191644 -883 16711680
7.325479294796837 37.260881885449216 -883 16711680
7.325479294796837 37.764419256706795 -883 16711680
7.341132028332728 38.349725766058306 -882.75 16711680
7.341132028332728 38.85433907186985 -882.75 16711680
7.356784761868618 39.44287338488328 -882.5 16711680
7.372437495404509 40.03355956700464 -882.25 16711680
7.3880902289404 40.62639761823394 -882 16711680
7.3880902289404 41.13423872770739 -882 16711680
7.403742962476291 41.7303045825986 -881.75 16711680
7.419395696012181 42.32852230659774 -881.5 16711680
7.466353896619853 43.10964512875621 -880.75 16711680
7.513312097227526 43.8972235582385 -880 16711680
7.62288123197876 45.061371529579134 -878.25 16711680
7.779408567337667 46.521395839238146 -875.75 16711680
8.014199570376027 48.47634060368439 -872 16711680
0 0 -1000 16711680
0 0 -1000 16711680
0 0 -1000 16711680
9.360334654462624 59.192486392553775 -850.5 16711680
0 0 -1000 16711680
0 0 -1000 16711680
0 0 -1000 16711680
0 0 -1000 16711680
0 0 -1000 16711680
0 0 -1000 16711680
0 0 -1000 16711680
0 0 -1000 16711680
0 0 -1000 16711680
0 0 -1000 16711680
0 0 -1000 16711680
0 0 -1000 16711680
0 0 -1000 16711680
0 0 -1000 16711680
7.106341025294368 52.26589160721139 -886.5 16711680
7.012424624079023 52.05717163178767 -888 16711680
6.949813689935461 52.070090398466164 -889 16711680
6.887202755791898 52.0744016887129 -890 16711680
6.855897288720117 52.30895919749362 -890.5 16711680
6.824591821648335 52.53921296805846 -891 16711680
6.824591821648335 53.00832043358901 -891 16711680
6.824591821648335 53.477427899119576 -891 16711680
6.840244555184226 54.070265950348876 -890.75 16711680
14.32275981879999 -112.36361347471436 -786 16711680
14.22236664249999 -110.66147368228883 -787.5 16711680
14.13870566224999 -109.10135913899494 -788.75 16711680
14.05504468199999 -107.55200394124074 -790 16711680
13.971383701749991 -106.01340808902623 -791.25 16711680
13.92118711359999 -104.73734404399565 -792 16711680
13.87099052544999 -103.46773560628887 -792.75 16711680
13.83752613334999 -102.32831713762008 -793.25 16711680
13.80406174124999 -101.19320240716716 -793.75 16711680
13.77059734914999 -100.06239141493012 -794.25 16711680
13.75386515309999 -99.05639071896123 -794.5 16711680
13.73713295704999 -98.05254189210027 -794.75 16711680
13.72040076099999 -97.05084493434724 -795 16711680
13.70366856494999 -96.05129984570216 -795.25 16711680
13.68693636889999 -95.05390662616502 -795.5 16711680
13.67020417284999 -94.05866527573582 -795.75 16711680
13.67020417284999 -93.179626745143 -795.75 16711680
13.67020417284999 -92.30058821455017 -795.75 16711680
13.67020417284999 -91.42154968395737 -795.75 16711680
13.67020417284999 -90.54251115336454 -795.75 16711680
13.68693636889999 -89.7732198352843 -795.5 16711680
13.68693636889999 -88.89310537013752 -795.5 16711680
13.68693636889999 -88.01299090499073 -795.5 16711680
13.70366856494999 -87.23939584869461 -795.25 16711680
13.68693636889999 -86.25276197469715 -795.5 16711680
13.68693636889999 -85.37264750955036 -795.5 16711680
13.68693636889999 -84.49253304440359 -795.5 16711680
13.67020417284999 -83.510202908622 -795.75 16711680
13.67020417284999 -82.63116437802918 -795.75 16711680
13.65347197679999 -81.65206204590952 -796 16711680
13.65347197679999 -80.77409944987068 -796 16711680
13.65347197679999 -79.89613685383182 -796 16711680
13.65347197679999 -79.01817425779298 -796 16711680
