VERSION 0.7 
FIELDS x y z rgb 
SIZE 4 4 4 4 
TYPE F F F U 
COUNT 1 1 1 1 
WIDTH 903 
HEIGHT 1 
VIEWPOINT 0 0 0 1 0 0 0 
POINTS 903 
DATA ascii 
118.04345258284334 2.7452542217165936 -787.25 10263706
118.1821640429877 3.665176377352523 -787 10132120
118.1821640429877 4.581872617334262 -787 10132376
118.1821640429877 5.498568857316 -787 10132374
118.1821640429877 6.4152650972977385 -787 9934741
118.04345258284334 7.32335574885544 -787.25 10132120
117.76602966255464 8.219613008327197 -787.75 10197913
117.48860674226594 9.111566529583078 -788.25 10197913
117.21118382197724 9.999216312623082 -788.75 10197913
116.65633798139983 10.856743704167382 -789.75 10263706
116.10149214082243 11.705663619279928 -790.75 10263962
115.40793484010067 12.53091486221287 -792 10395805
114.4369546190902 13.313132499002474 -793.75 10593182
113.18855147779104 14.045860922324932 -796 10527134
111.24659103577011 14.667777526627148 -799.5 10592671
108.88849621331613 15.201473161527039 -803.75 10658464
105.97555555028475 15.616823547521188 -809 10461342
102.50776904667595 15.90091746996196 -815.25 10526878
94.6012158184479 15.408247060683918 -829.5 10461342
90.71729493440606 15.479311605461945 -836.5 10526878
86.97208551050855 15.514868421951272 -843.25 10461085
83.6430104670441 15.569786396388896 -849.25 10395546
80.86878126415708 15.680645415602049 -854.25 10329499
78.64939790184745 15.860356694238366 -858.25 10329499
76.84614891997087 16.092783101996023 -861.5 10198427
75.45903431852736 16.38760804986074 -864 10132634
74.34934263737254 16.723314734760855 -866 10198427
73.65578533665078 17.138634912631538 -867.25 10001049
72.96222803592903 17.54319574496253 -868.5 9935256
72.54609365549597 18.005853267192425 -869.25 10000792
72.12995927506292 18.462055182098506 -870 10000792
71.71382489462987 18.911801489680773 -870.75 9868949
71.43640197434115 19.39274801132043 -871.25 9868949
71.15897905405245 19.869390794744206 -871.75 9737876
70.88155613376375 20.341729839952105 -872.25 9737875
70.60413321347505 20.80976514694413 -872.75 9672080
70.32671029318634 21.27349671572028 -873.25 9211271
70.04928737289764 21.73292454628055 -873.75 8881275
69.91057591275329 22.232160067329964 -874 6575949
69.77186445260894 22.72924371927144 -874.25 5127473
69.63315299246459 23.22417550210498 -874.5 4929065
69.49444153232024 23.71695541583058 -874.75 4403493
69.35573007217587 24.20758346044824 -875 4008737
69.35573007217587 24.74555073743283 -875 3942944
69.35573007217587 25.283518014417417 -875 3876897
69.21701861203152 25.7698423208192 -875.25 3680289
69.21701861203152 26.30673366324982 -875.25 3548962
69.21701861203152 26.84362500568044 -875.25 3615268
69.07830715188717 27.325645573866346 -875.5 3418148
69.07830715188717 27.861460981742997 -875.5 3549221
69.07830715188717 28.39727638961965 -875.5 3548707
69.07830715188717 28.933091797496296 -875.5 3613985
69.07830715188717 29.468907205372947 -875.5 3745057
69.21701861203152 30.064973060264155 -875.25 3613728
69.21701861203152 30.601864402694773 -875.25 3351327
69.35573007217587 31.201158061247888 -875 3285792
69.63315299246459 31.866081839585405 -874.5 3219999
69.91057591275329 32.535309356138804 -874 3088413
70.32671029318634 33.27447073069248 -873.25 3088414
70.88155613376375 34.086793766908336 -872.25 3153949
71.71382489462987 35.04328825734064 -870.75 3087643
72.96222803592903 36.2192677327595 -868.5 2825241
74.4880540975169 37.554481746150365 -865.75 2759705
76.43001453953782 39.1263956973913 -862.25 2759448
79.0655322822805 41.08886445168447 -857.5 2825240
82.11718440545624 43.311703704015024 -852 2759448
85.58497090906504 45.804596865368694 -845.75 2628377
89.46889179310689 48.577227346731206 -838.75 2431512
93.49152413729308 51.48649962844008 -831.5 2300697
97.37544502133494 54.380710714401104 -824.5 2104088
100.98194298508808 57.178091466520335 -818 2104090
100.98194298508808 57.9613718218099 -818 2169626
104.17230656840817 60.60059585851881 -812.25 2300183
106.9465357712952 63.04400547042848 -807.25 2300183
109.02720767346048 65.11622710125737 -803.5 2234647
110.55303373504836 66.88504273989781 -800.75 2234648
111.52401395605881 68.33754117170218 -799 2365977
112.21757125678057 69.6329569346425 -797.75 2365719
112.63370563721364 70.76483442139491 -797 2365461
113.74339731836844 72.34429124255993 -795 2496790
113.8821087785128 73.31585825678638 -794.75 2365717
114.02082023865715 74.28957714012077 -794.5 2300436
114.02082023865715 75.17399534348344 -794.5 2365976
114.02082023865715 76.0584135468461 -794.5 2365976
113.8821087785128 76.84922733202116 -794.75 2300183
113.74339731836844 77.63788924808829 -795 2300953
113.46597439807974 78.32864300775192 -795.5 2366745
113.32726293793539 79.1119252510492 -795.75 2629402
113.04984001764669 79.79514746883507 -796.25 3024417
112.91112855750234 80.5730500393625 -796.5 3616810
112.77241709735799 81.348800740782 -796.75 5459528
112.63370563721364 82.12239957309355 -797 7434088
112.49499417706927 82.89384653629716 -797.25 7961204
112.35628271692492 83.66314163039284 -797.5 7961205
112.35628271692492 84.53464861910787 -797.5 7895412
112.35628271692492 85.40615560782291 -797.5 7895158
112.35628271692492 86.27766259653794 -797.5 7960694
112.35628271692492 87.14916958525298 -797.5 8026487
112.35628271692492 88.020676573968 -797.5 7960436
112.21757125678057 88.7824401261859 -797.75 7959665
112.21757125678057 89.65287118034696 -797.75 8025715
112.07885979663622 90.41140692890295 -798 7959921
111.94014833649187 91.167790808351 -798.25 7697519
111.80143687634752 91.9220228186911 -798.5 7631983
111.66272541620317 92.67410295992327 -798.75 7631727
111.66272541620317 93.54023027586847 -798.75 7434347
111.66272541620317 94.40635759181365 -798.75 7368297
111.66272541620317 95.27248490775884 -798.75 7236969
111.80143687634752 96.25803907118689 -798.5 7302762
111.94014833649187 97.24574510372287 -798.25 7171176
112.21757125678057 98.3571817219576 -797.75 7171176
112.63370563721364 99.59557672955297 -797 7105385
112.63370563721364 100.46923558737595 -797 6974309
132.80137652553802 -126.74688406489966 -762.5 12106690
131.96263098958727 -124.9306952097534 -764 12106690
131.96263098958727 -123.91501299080649 -764 12304069
131.26367637629494 -122.24838092666965 -765.25 12172227
130.70451268566111 -120.72162224255652 -766.25 12106692
130.2851399176857 -119.3315091348052 -767 12106949
129.86576714971034 -117.94785163437768 -767.75 12106949
128.8872306911011 -116.06710481798555 -769.5 12106692
128.46785792312573 -114.70066227042155 -770.25 11975105
128.04848515515033 -113.34067533018136 -771 11777725
127.90869423249188 -112.23246085158539 -771.25 11777467
127.90869423249188 -111.2479807347036 -771.25 11843002
127.76890330983342 -110.14299405976953 -771.5 11514294
127.76890330983342 -109.1595898774417 -771.5 11514036
127.76890330983342 -108.17618569511389 -771.5 11579829
127.90869423249188 -107.31006026717641 -771.25 11514036
128.04848515515033 -106.441782970131 -771 11579830
128.04848515515033 -105.45622691869524 -771 11579830
128.1882760778088 -104.58472181798791 -770.75 11645880
127.90869423249188 -103.37213979964922 -771.25 11448758
127.62911238717496 -102.1638615195264 -771.75 11448758
127.34953054185804 -100.95988697761946 -772.25 11317427
127.06994869654112 -99.7602161739284 -772.75 11448243
126.93015777388266 -98.67352038641181 -773 11448241
126.65057592856573 -97.48138112459853 -773.5 11382448
126.51078500590728 -96.40006500985179 -773.75 11054255
126.51078500590728 -95.42634423850969 -773.75 10988719
126.37099408324882 -94.34825592742486 -774 10857387
126.23120316059035 -93.27231948544797 -774.25 10988716
126.23120316059035 -92.3007505832138 -774.25 11054253
126.09141223793189 -91.2280419448988 -774.5 11120046
125.95162131527343 -90.15748517569176 -774.75 11316655
125.81183039261497 -89.08908027559265 -775 11316655
125.6720394699565 -88.02282724460149 -775.25 11316657
125.53224854729804 -86.95872608271826 -775.5 11250864
125.25266670198113 -85.80101672663199 -776 11382450
125.11287577932266 -84.7422952375186 -776.25 11316656
124.9730848566642 -83.68572561751316 -776.5 11316655
124.83329393400574 -82.63130786661564 -776.75 11120046
124.69350301134727 -81.57904198482608 -777 11185839
124.69350301134727 -80.61930836268556 -777 11185839
124.69350301134727 -79.65957474054505 -777 11316655
124.69350301134727 -78.69984111840455 -777 11382448
124.55371208868881 -77.65295490938483 -777.25 11448241
124.55371208868881 -76.6942972217983 -777.25 11448243
124.55371208868881 -75.73563953421176 -777.25 11448243
124.41392116603036 -74.6930570634079 -777.5 11251632
124.41392116603036 -73.73547531037534 -777.5 11251632
124.2741302433719 -72.6961206432334 -777.75 11317425
124.2741302433719 -71.7396148247548 -777.75 11251376
124.2741302433719 -70.7831090062762 -777.75 11448243
124.2741302433719 -69.8266031877976 -777.75 11514036
124.41392116603036 -68.9475665452125 -777.5 11448243
124.41392116603036 -67.98998479217994 -777.5 11448244
124.2741302433719 -66.9570857323618 -777.75 11382451
124.2741302433719 -66.00057991388321 -777.75 11514036
124.2741302433719 -65.04407409540461 -777.75 11382449
124.2741302433719 -64.08756827692602 -777.75 11448497
124.2741302433719 -63.13106245844742 -777.75 11514034
124.2741302433719 -62.17455663996882 -777.75 11579827
124.2741302433719 -61.21805082149022 -777.75 11448497
124.2741302433719 -60.26154500301162 -777.75 11514034
124.2741302433719 -59.30503918453302 -777.75 11382702
124.13433932071344 -58.28289947025459 -778 11382702
124.13433932071344 -57.32746958632996 -778 11382702
123.99454839805497 -56.30855767571344 -778.25 11382702
123.85475747539651 -55.29179763420484 -778.5 11448495
123.71496655273805 -54.27718946180419 -778.75 11448495
123.57517563007958 -53.264733158511476 -779 11382448
123.29559378476267 -52.19525043585068 -779.5 11513777
123.15580286210421 -51.18817380532782 -779.75 11579570
123.15580286210421 -50.24027546328097 -779.75 11447984
123.01601193944575 -49.23642663642001 -780 11382702
122.87622101678728 -48.234729678666994 -780.25 11382702
122.73643009412882 -47.235184590021916 -780.5 11185324
122.73643009412882 -46.290514051636976 -780.5 10856358
122.59663917147036 -45.294196766653805 -780.75 10330013
122.59663917147036 -44.35060216282283 -780.75 11053736
122.45684824881191 -43.35751268150157 -781 11185323
122.45684824881191 -42.41499401222457 -781 11251116
122.45684824881191 -41.47247534294757 -781 11185323
122.45684824881191 -40.52995667367057 -781 10987432
122.59663917147036 -39.63262914366799 -780.75 10987688
122.59663917147036 -38.689034539837024 -780.75 10856101
122.73643009412882 -37.78847920617254 -780.5 10856358
122.73643009412882 -36.843808667787606 -780.5 10856358
122.73643009412882 -35.899138129402665 -780.5 11119530
122.73643009412882 -34.95446759101773 -780.5 11250859
122.59663917147036 -33.971061520682184 -780.75 11382702
122.45684824881191 -32.98980731945458 -781 11448494
122.31705732615345 -32.01070498733491 -781.25 11448494
122.17726640349498 -31.033754524323186 -781.5 11447982
122.03747548083652 -30.058955930419394 -781.75 11382446
121.89768455817806 -29.086309205623543 -782 11382702
121.89768455817806 -28.14809427456242 -782 11382702
121.7578936355196 -27.178675353428478 -782.25 11448495
121.61810271286113 -26.21140830140247 -782.5 11316909
121.61810271286113 -25.275345239449287 -782.5 11382702
121.61810271286113 -24.339282177496106 -782.5 11251116
121.61810271286113 -23.40321911554292 -782.5 11251116
121.61810271286113 -22.467156053589736 -782.5 11316396
121.61810271286113 -21.53109299163655 -782.5 11316652
121.47831179020267 -20.57135748148833 -782.75 11185323
121.33852086754422 -19.613773840448047 -783 11251116
121.19872994488576 -18.6583420685157 -783.25 11185323
121.05893902222729 -17.705062165691295 -783.5 11054251
120.77935717691037 -16.734565421995665 -784 11054251
120.6395662542519 -15.786665191941104 -784.25 11054251
120.49977533159344 -14.84091683099448 -784.5 11054251
120.35998440893499 -13.897320339155796 -784.75 11185323
120.22019348627653 -12.95587571642505 -785 11185323
120.08040256361807 -12.016582962802243 -785.25 11053737
120.08040256361807 -11.09235518094272 -785.25 11053737
120.08040256361807 -10.168127399083197 -785.25 10987942
119.9406116409596 -9.233138383676266 -785.5 10987941
119.9406116409596 -8.309986536370712 -785.5 10658977
119.9406116409596 -7.386834689065159 -785.5 10724513
119.9406116409596 -6.4636828417596055 -785.5 10592671
119.9406116409596 -5.540530994454051 -785.5 10526878
119.9406116409596 -4.6173791471484975 -785.5 10395292
119.9406116409596 -3.6942272998429444 -785.5 10526880
119.9406116409596 -2.7710754525373904 -785.5 10395294
119.9406116409596 -1.8479236052318366 -785.5 10198428
119.9406116409596 -0.9247717579262833 -785.5 10264220
119.80082071830114 -0.0016180226130131869 -785.75 10264219
119.80082071830114 0.9204578901385713 -785.75 10132633
119.80082071830114 1.8425338028901554 -785.75 10066840
119.80082071830114 2.7646097156417397 -785.75 10198426
119.66102979564268 3.682383778185164 -786 10132633
119.66102979564268 4.6033837563827795 -786 10329755
119.52123887298421 5.517930015264296 -786.25 10461339
119.2416570276673 6.422794751167807 -786.75 10329499
118.96207518235038 7.32335574885544 -787.25 10461085
118.68249333703345 8.219613008327197 -787.75 10395292
118.26312056905807 9.100809072051103 -788.5 10461085
117.84374780108269 9.975549528451193 -789.25 10330012
117.28458411044885 10.830925050887554 -790.25 10527135
116.44583857449807 11.649722574504397 -791.75 10461596
115.3275111932304 12.425486491977905 -793.75 10527389
113.78981104398731 13.135624065682443 -796.5 10658720
111.83273812676886 13.770451884632287 -800 10593184
109.31650151891657 14.301997538431957 -804.5 10593184
106.10131029777196 14.697984878470093 -810.25 10461598
102.46674630865196 14.983156623472553 -816.75 10395805
98.41280955155659 15.147829362453614 -824 10461598
90.44472696002431 14.617501243786649 -838.25 10527134
86.67037204824587 14.67457675135536 -845 10395805
83.45518082710126 14.772530219944034 -850.75 10264219
80.7991532965905 14.9242728642003 -855.5 10264217
78.56249853405512 15.115819422930278 -859.5 10197913
76.8850074621536 15.384825717515168 -862.5 10198426
75.62688915822744 15.715154617653155 -864.75 10132633
74.50856177695975 16.056240975323114 -866.75 10066841
73.80960716366745 16.473713022301737 -868 10198427
73.11065255037514 16.880425723740668 -869.25 10001049
72.69127978239976 17.34308324597056 -870 10001049
72.13211609176591 17.764857143157347 -871 10001047
71.852534246449 18.24903146845891 -871.5 9869204
71.43316147847361 18.692322168717357 -872.25 9803668
71.15357963315668 19.166813083033198 -872.75 9803666
70.7342068651813 19.59826850319799 -873.5 9737616
70.45462501986438 20.063076006528107 -874 9540237
70.31483409720592 20.564463396685458 -874.25 9408648
70.035252251889 21.02173935813779 -874.75 8881275
69.89546132923054 21.5177470755253 -875 6576464
69.61587948391362 21.967491495099846 -875.5 4930865
69.47608856125515 22.458119539717508 -875.75 4863531
69.47608856125515 22.99285901304019 -875.75 4665894
69.33629763859669 23.480259253995943 -876 4206116
69.19650671593823 23.965507625843756 -876.25 4140323
69.19650671593823 24.4980952300585 -876.25 4008738
69.05671579327976 24.98011579824441 -876.5 3811617
69.05671579327976 25.511627467905182 -876.5 3746338
69.05671579327976 26.043139137565955 -876.5 3615266
68.91692487062132 26.520855967535987 -876.75 3483939
68.91692487062132 27.05129170264279 -876.75 3418403
69.05671579327976 27.637674146548274 -876.5 3483428
69.05671579327976 28.169185816209048 -876.5 3614500
69.19650671593823 28.75879606377644 -876.25 3547935
69.33629763859669 29.35055818045177 -876 3613729
69.47608856125515 29.94447216623504 -875.75 3416863
69.61587948391362 30.540538021126245 -875.5 3154463
69.89546132923054 31.201158061247888 -875 3154719
70.17504317454745 31.866081839585405 -874.5 2957854
70.45462501986438 32.535309356138804 -874 2826268
70.87399778783977 33.27447073069248 -873.25 3022877
71.57295240113207 34.15349982124671 -872 3022876
72.5514888597413 35.17885223512532 -870.25 2957083
73.80960716366745 36.35698357965212 -868 2825756
75.62688915822744 37.83421717815149 -864.75 2694684
77.86354392076282 39.5524544527168 -860.75 2694170
80.65936237393204 41.593464541441996 -855.75 2759448
84.01434451773511 43.97015865897471 -849.75 2759448
87.78869942951356 46.62121042374642 -843 2759448
91.70284526395046 49.40567618520259 -836 2628121
95.75678202104584 52.32678374700512 -828.75 2300440
95.75678202104584 53.06379891647401 -828.75 2300697
99.53113693282428 55.9214301156078 -822 2235161
102.88611907662735 58.598309973697916 -816 2169881
105.82172845245503 61.08475507975864 -810.75 2300439
108.19817413764888 63.2893128847103 -806.5 2234903
110.01545613220887 65.19907217390528 -803.25 2234903
111.27357443613502 66.80112173269593 -801 2234904
112.25211089474425 68.25254422994634 -799.25 2300697
113.09085643069501 69.6329569346425 -797.75 2300183
113.51022919867039 70.76483442139491 -797 2431512
113.78981104398731 71.81494277005339 -796.5 2431512
113.92960196664578 72.78005417695603 -796.25 2300180
113.92960196664578 73.65694083844092 -796.25 2169108
113.92960196664578 74.53382749992579 -796.25 2300440
114.06939288930424 75.50324264504431 -796 2300954
114.06939288930424 76.38120524108315 -796 2366490
114.06939288930424 77.25916783712199 -796 2366489
114.2091838119627 78.23288672045639 -795.75 2366489
114.34897473462117 79.20875747289871 -795.5 2695195
114.34897473462117 80.0888719380455 -795.5 2761244
114.48876565727961 81.06797049414973 -795.25 3287846
114.48876565727961 81.94916089385049 -795.25 5065026
114.62855657993808 82.93148725361664 -795 7368550
114.62855657993808 83.81375358787136 -795 7698032
114.62855657993808 84.69601992212608 -795 7698033
114.62855657993808 85.5782862563808 -795 7829619
114.62855657993808 86.46055259063553 -795 7961205
114.62855657993808 87.34281892489025 -795 7829366
114.62855657993808 88.22508525914498 -795 7894900
113.23064735335348 88.020676573968 -797.5 7960435
113.23064735335348 88.89218356268303 -797.5 7894129
113.09085643069501 89.65287118034696 -797.75 7960177
113.09085643069501 90.52330223450802 -797.75 7894127
112.95106550803655 91.28076204851004 -798 7631727
112.95106550803655 92.15011716811713 -798 7434861
112.95106550803655 93.01947228772423 -798 7303275
112.95106550803655 93.88882740733132 -798 7171689
113.09085643069501 94.87545750531335 -797.75 7171176
113.23064735335348 95.8642394724033 -797.5 7171176
113.51022919867039 96.97460015608407 -797 7105383
113.92960196664578 98.20976736001752 -796.25 7039590
113.09085643069501 98.3571817219576 -797.75 6842211
113.09085643069501 99.22761277611866 -797.75 6842213
113.37043827601194 100.34550500167721 -797.25 6711138
134.24947706945954 -127.14713738299935 -761.75 12040899
133.40425475842414 -125.32772072419117 -763.25 12172485
132.55903244738872 -123.52121528003062 -764.75 12303301
132.55903244738872 -122.50876086474562 -764.75 12237508
131.85468052152586 -120.85073627704054 -766 12172485
131.00945821049044 -119.0754329349451 -767.5 12172484
130.44597666980016 -117.56696513824946 -768.5 12172486
129.88249512910988 -116.06710481798555 -769.5 11975106
131.00945821049044 -116.0735755293711 -767.5 11974849
130.58684705497274 -114.70175330903726 -768.25 11843005
130.30510628462758 -113.45904512318742 -768.75 11711417
130.02336551428243 -112.22064067555347 -769.25 11711416
130.02336551428243 -111.22755308223991 -769.25 11579829
129.88249512910988 -110.11503486542807 -769.5 11579829
129.7416247439373 -109.00466851772416 -769.75 11645622
129.60075435876473 -107.89645403912819 -770 11514036
129.45988397359216 -106.79039142964017 -770.25 11514036
129.31901358841958 -105.68648068926007 -770.5 11579829
129.17814320324703 -104.58472181798791 -770.75 11711416
128.47379127738418 -103.03321475112578 -772 11514294
128.3329208922116 -101.94006335628538 -772.25 11382965
128.3329208922116 -100.95988697761946 -772.25 11448244
128.19205050703903 -99.86996338644097 -772.5 11448243
128.05118012186645 -98.78219166437042 -772.75 11448243
128.05118012186645 -97.80416715481243 -772.75 11447730
127.91030973669389 -96.71962323640379 -773 11251377
127.76943935152131 -95.63723118710308 -773.25 11120048
127.48769858117618 -94.45262346716758 -773.75 10988462
127.48769858117618 -93.47890269582548 -773.75 11120048
127.34682819600361 -92.40296625384859 -774 11185841
127.20595781083104 -91.32918168097963 -774.25 11185841
127.06508742565846 -90.25754897721862 -774.5 11382448
126.78334665531332 -89.08908027559265 -775 11382448
126.64247627014076 -88.02282724460149 -775.25 11316656
126.50160588496819 -86.95872608271826 -775.5 11316657
126.21986511462305 -85.80101672663199 -776 11382450
126.36073549979561 -84.93166349503261 -775.75 11250864
126.36073549979561 -83.96655020012226 -775.75 11316655
126.36073549979561 -83.0014369052119 -775.75 11251632
126.36073549979561 -82.03632361030155 -775.75 11251632
126.21986511462305 -80.98082992485007 -776 11185839
126.21986511462305 -80.0167925644937 -776 11382448
126.07899472945047 -78.96452668270412 -776.25 11382448
125.93812434427791 -77.91441267002249 -776.5 11382448
125.65638357393276 -76.78037387412354 -777 11316657
125.5155131887602 -75.73563953421176 -777.25 11382450
125.37464280358762 -74.6930570634079 -777.5 11382448
125.37464280358762 -73.73547531037534 -777.5 11185839
125.37464280358762 -72.77789355734278 -777.5 11185839
125.37464280358762 -71.82031180431021 -777.5 11185839
125.37464280358762 -70.86273005127764 -777.5 11317169
125.5155131887602 -69.98369340869253 -777.25 11448243
125.65638357393276 -69.10250489699949 -777 11448243
125.65638357393276 -68.14277127485899 -777 11448244
125.65638357393276 -67.18303765271848 -777 11448244
125.65638357393276 -66.22330403057798 -777 11382450
125.65638357393276 -65.26357040843747 -777 11448243
125.65638357393276 -64.30383678629697 -777 11448243
125.5155131887602 -63.27308959558678 -777.25 11382448
125.5155131887602 -62.314431908000245 -777.25 11448241
125.37464280358762 -61.286912520951965 -777.5 11579568
125.37464280358762 -60.329330767919394 -777.5 11447983
125.23377241841506 -59.30503918453302 -777.75 11514031
125.09290203324248 -58.28289947025459 -778 11448493
124.9520316480699 -57.262911625084094 -778.25 11316907
124.81116126289734 -56.24507564902154 -778.5 11382702
124.67029087772477 -55.229391542066914 -778.75 11382702
124.5294204925522 -54.21585930422023 -779 11448751
124.38855010737963 -53.20447893548149 -779.25 11448241
124.38855010737963 -52.25442872432671 -779.25 11448241
124.24767972220705 -51.24627615924987 -779.5 11513777
124.10680933703449 -50.24027546328097 -779.75 11448240
124.10680933703449 -49.292377121234125 -779.75 11251116
123.96593895186192 -48.28960422892714 -780 11316909
123.96593895186192 -47.342781821434265 -780 11119529
123.82506856668935 -46.34323673278918 -780.25 10790563
123.82506856668935 -45.39749025985028 -780.25 9803668
123.68419818151678 -44.4011729748671 -780.5 10922150
123.68419818151678 -43.45650243648217 -780.5 10987944
123.5433277963442 -42.4634129551609 -780.75 10987944
123.5433277963442 -41.51981835132993 -780.75 10922151
123.5433277963442 -40.576223747498965 -780.75 10921640
123.40245741117164 -39.587438004393576 -781 10856103
123.40245741117164 -38.644919335116576 -781 10790565
123.26158702599906 -37.65936139567309 -781.25 10856358
123.26158702599906 -36.71791866095006 -781.25 10790565
123.1207166408265 -35.73558852516849 -781.5 11119530
122.97984625565392 -34.75541025849485 -781.75 11251116
122.69810548530879 -33.73864832897855 -782.25 11316909
122.55723510013621 -32.76384973507476 -782.5 11316908
122.55723510013621 -31.827786673121572 -782.5 11579823
122.41636471496365 -30.856215882879688 -782.75 11382189
122.27549432979107 -29.886796961745745 -783 11382189
122.1346239446185 -28.91952990971974 -783.25 11382702
122.1346239446185 -27.98669465142846 -783.25 11316909
121.99375355944593 -27.022655403064366 -783.5 11185323
121.99375355944593 -26.09089607932706 -783.5 11185580
121.85288317427336 -25.13008463462487 -783.75 11185321
121.85288317427336 -24.19940124544153 -783.75 11185321
121.85288317427336 -23.268717856258192 -783.75 11316907
121.85288317427336 -22.338034467074852 -783.75 11250858
121.85288317427336 -21.407351077891516 -783.75 11316652
121.7120127891008 -20.45299524051314 -784 11119530
121.57114240392822 -19.5007912722427 -784.25 11185323
121.43027201875564 -18.550739173080203 -784.5 11185323
121.1485312484105 -17.58239429849251 -785 11119530
121.00766086323794 -16.637721872099856 -785.25 11119530
120.7259200928928 -15.676908539389949 -785.75 10987944
120.58504970772023 -14.73761578576714 -786 11053735
120.44417932254765 -13.800474901252272 -786.25 11119528
120.30330893737509 -12.86548588584534 -786.5 11119529
120.30330893737509 -11.946637776755663 -786.5 11053737
120.30330893737509 -11.027789667665987 -786.5 11053737
120.30330893737509 -10.10894155857631 -786.5 10922149
120.44417932254765 -9.200854683034041 -786.25 10790563
120.58504970772023 -8.290615938383834 -786 10395806
120.7259200928928 -7.378225324625689 -785.75 10395805
120.7259200928928 -6.4561494118741045 -785.75 10263962
120.86679047806537 -5.540530994454051 -785.5 10330012
121.00766086323794 -4.62276070792606 -785.25 10264220
121.1485312484105 -3.702838552290131 -785 10264477
121.28940163358308 -2.7807645275462622 -784.75 10330014
121.43027201875564 -1.856538633694456 -784.5 10330012
121.57114240392822 -0.9301608707347114 -784.25 10132890
121.43027201875564 -0.0016274626515955274 -784.5 10198939
121.43027201875564 0.9258281228698348 -784.5 10264732
121.28940163358308 1.851133727291043 -784.75 10330525
121.00766086323794 2.771061546950122 -785.25 10330268
120.7259200928928 3.6866856283933243 -785.75 10330012
120.44417932254765 4.59800597162065 -786.25 10593184
120.02156816702995 5.498568857316 -787 10658719
119.7398273966848 6.400205789557603 -787.5 10658464
119.3172162411671 7.288933395159293 -788.25 10658720
119.03547547082195 8.180886916415172 -788.75 10658720
118.75373470047681 9.068536699455176 -789.25 10658720
118.3311235449591 9.940049352193359 -790 10527391
117.76764200426882 10.792197070967813 -791 10527391
116.78154930806083 11.593781529728865 -792.75 10527389
115.51371584150769 12.350180513238644 -795 10593182
113.68240083426429 13.022664153569695 -798.25 10527391
111.14673390115802 13.581108171218593 -802.75 10527391
108.04758542736147 14.027662547285564 -808.25 10461598
104.24408502770207 14.330051133159246 -815 10461341
100.15884385769753 14.5334575160832 -822.25 10395805
95.79186191734784 14.631426088733605 -830 10461598
91.56575036217073 14.685279456663558 -837.5 10527391
84.24049033319707 14.15386596340404 -850.5 10330012
81.42308262974566 14.302382692006116 -855.5 10198426
79.16915646698455 14.511144203599601 -859.5 10198424
77.33784145974113 14.76616523699061 -862.75 10132633
75.92913760801542 15.077129203164866 -865.25 10132633
74.94304491180743 15.453719513108092 -867 10198426
74.097822600772 15.845371018799172 -868.5 10132633
73.39347067490915 16.255311523900012 -869.75 10001304
72.97085951939145 16.719044980683872 -870.5 9935255
72.40737797870116 17.142970746978595 -871.5 9935254
71.98476682318345 17.59271705456086 -872.25 9935253
71.70302605283831 18.071511707092576 -872.75 9869460
71.2804148973206 18.509422734581182 -873.5 9869459
70.99867412697546 18.978533976127174 -874 9738128
70.71693335663032 19.443341479457292 -874.5 9540236
70.57606297145774 19.943652935060676 -874.75 9474184
70.2943222011126 20.40092889651301 -875.25 9012860
70.15345181594004 20.895860679346548 -875.5 7696228
70.01258143076747 21.388640593072147 -875.75 5325882
70.01258143076747 21.923380066394827 -875.75 4930095
69.87171104559489 22.41293217645852 -876 4666409
69.87171104559489 22.946595715227232 -876 4468517
69.73084066042233 23.432920021629016 -876.25 4074531
69.73084066042233 23.965507625843756 -876.25 4074788
69.73084066042233 24.4980952300585 -876.25 4074531
69.73084066042233 25.030682834273243 -876.25 3877153
69.58997027524975 25.511627467905182 -876.5 3746081
69.58997027524975 26.043139137565955 -876.5 3614753
69.58997027524975 26.57465080722673 -876.5 3483681
69.58997027524975 27.1061624768875 -876.5 3418146
69.58997027524975 27.637674146548274 -876.5 3417633
69.73084066042233 28.226208459561697 -876.25 3483170
69.73084066042233 28.75879606377644 -876.25 3679780
69.87171104559489 29.35055818045177 -876 3679523
70.01258143076747 29.94447216623504 -875.75 3416608
70.15345181594004 30.540538021126245 -875.5 3088670
70.2943222011126 31.138755745125394 -875.25 2957598
70.57606297145774 31.80260358890894 -874.75 2826524
70.99867412697546 32.535309356138804 -874 2826525
71.56215566766575 33.34010085047688 -873 2826268
72.2665075935286 34.22020587558509 -871.75 2957084
73.39347067490915 35.314416212910004 -869.75 2825755
74.80217452663486 36.56355734999106 -867.25 2760477
76.77435991905085 38.11395261015261 -863.75 2563355
79.16915646698455 39.907503415488044 -859.5 2431512
82.12743455560852 42.02597890409131 -854.25 2562583
85.64919418492278 44.482290290610024 -848 2628119
89.45269458458218 47.14087359725952 -841.25 2693912
89.45269458458218 47.82409203902994 -841.25 2562583
93.39706536941415 50.646215509875034 -834.25 2431511
97.48230653941869 53.60605671562046 -827 2300696
101.14493655390552 56.3926781222 -820.5 2235160
104.52582579804721 59.07601358761393 -814.5 2104088
107.48410388667119 61.56891430099847 -809.25 2234904
109.73803004943231 63.69815857518 -805.25 2234904
111.42847467150315 65.53045246449692 -802.25 2234904
112.132826597366 66.80112173269593 -801 2104088
113.118919293574 68.25254422994634 -799.25 2234904
113.68240083426429 69.46081118202285 -798.25 2234904
113.96414160460942 70.50338798880355 -797.75 2300184
114.24588237495456 71.55026853380014 -797.25 2365719
114.38675276012714 72.51215213704086 -797 2234390
114.5276231452997 73.47618760938953 -796.75 2169110
114.5276231452997 74.35092240176647 -796.75 2038295
114.66849353047228 75.31818567777704 -796.5 1972502
114.80936391564484 76.28760082289556 -796.25 2038552
114.95023430081741 77.25916783712199 -796 2366746
115.09110468598999 78.23288672045639 -795.75 2432282
115.23197507116255 79.20875747289871 -795.5 2760732
115.37284545633513 80.18678009444898 -795.25 2826781
115.51371584150769 81.16695458510718 -795 3419431
115.51371584150769 82.04922091936191 -795 4604730
115.65458622668027 83.03262321368202 -794.75 7039328
115.65458622668027 83.91596548249072 -794.75 7763568
115.51371584150769 84.69601992212608 -795 7763826
115.51371584150769 85.5782862563808 -795 7895412
115.37284545633513 86.35511289235427 -795.25 7961205
115.51371584150769 87.34281892489025 -795 7895413
115.51371584150769 88.22508525914498 -795 7960692
115.51371584150769 89.10735159339971 -795 7894642
115.37284545633513 89.8798744911573 -795.25 8092021
115.23197507116255 90.65024551980694 -795.5 7894384
115.09110468598999 91.41846467934865 -795.75 7828591
114.95023430081741 92.18453196978241 -796 7434348
114.80936391564484 92.94844739110825 -796.25 7369068
114.66849353047228 93.71021094332615 -796.5 7369068
114.5276231452997 94.4698226264361 -796.75 7369068
114.38675276012714 95.22728244043812 -797 7369068
114.38675276012714 96.10094129826109 -797 7105640
114.38675276012714 96.97460015608407 -797 6974053
114.80936391564484 98.20976736001752 -796.25 7039590
114.80936391564484 99.0866540215024 -796.25 6710625
115.23197507116255 100.33150463642158 -795.5 6579041
115.79545661185284 101.70654144436334 -794.5 6447967
135.27820484540572 -127.14713738299935 -761.75 11909313
134.56845560697232 -125.4600625623371 -763 12237508
134.1426060639123 -124.04627889439844 -763.75 12105922
133.71675652085224 -122.63895083378361 -764.5 12105922
133.71675652085224 -121.62542048394465 -764.5 12237508
133.29090697779222 -120.22777583431554 -765.25 11974852
132.86505743473217 -118.83658679201025 -766 12106438
132.29725804398547 -117.32596712620665 -767 12040642
132.0133583486121 -116.0735755293711 -767.5 12040385
131.58750880555206 -114.70175330903726 -768.25 11908542
132.7231075870455 -114.68562939478944 -766.25 11842748
132.29725804398547 -113.31488310900957 -767 11645623
131.72945865323874 -111.83008587250123 -768 11579573
131.72945865323874 -110.83161860641783 -768 11645109
131.3036091101787 -109.47808727350147 -768.75 11579316
130.73580971943198 -108.01373279351856 -769.75 11710645
130.30996017637193 -106.67418860980378 -770.5 11514036
130.02606048099858 -105.45622691869524 -771 11579829
129.74216078562523 -104.24256896580258 -771.5 11711415
129.45826109025185 -103.03321475112578 -772 11645623
129.8841106333119 -102.38765968276742 -771.25 11579830
129.74216078562523 -101.29235641881908 -771.5 11448244
129.60021093793856 -100.19920502397869 -771.75 11514037
129.45826109025185 -99.10820549824622 -772 11579317
129.31631124256518 -98.0193578416217 -772.25 11579317
129.03241154719183 -96.82614264525445 -772.75 11382450
128.89046169950515 -95.74267466139978 -773 11382450
128.60656200413177 -94.55699100691031 -773.5 11382450
128.4646121564451 -93.47890269582548 -773.75 11448243
128.4646121564451 -92.50518192448337 -773.75 11316657
128.18071246107175 -91.32918168097963 -774.25 11316657
128.03876261338507 -90.25754897721862 -774.5 11382450
127.89681276569839 -89.18806814256554 -774.75 11250862
127.61291307032502 -88.02282724460149 -775.25 11316655
127.61291307032502 -87.0555620805832 -775.25 11382450
127.47096322263835 -85.99253685325394 -775.5 11382450
127.32901337495167 -84.93166349503261 -775.75 11316657
127.32901337495167 -83.96655020012226 -775.75 11316655
128.03876261338507 -83.46409820345723 -774.5 11251632
127.89681276569839 -82.40214891068194 -774.75 11251375
127.89681276569839 -81.43273187755571 -774.75 11185583
127.75486291801171 -80.37401038844233 -775 11448498
127.61291307032502 -79.31744076843688 -775.25 11316655
127.47096322263835 -78.26302301753937 -775.5 11382448
127.32901337495167 -77.2107571357498 -775.75 11316657
127.187063527265 -76.16064312306816 -776 11382449
127.04511367957831 -75.11268097949447 -776.25 11250862
126.90316383189163 -74.0668707050287 -776.5 11250862
126.90316383189163 -73.10498521378027 -776.5 11316655
126.90316383189163 -72.14309972253183 -776.5 11316655
127.04511367957831 -71.26083527628481 -776.25 11382448
127.04511367957831 -70.2978738504824 -776.25 11448241
127.187063527265 -69.41238160057348 -776 11448243
127.187063527265 -68.4483442402171 -776 11448244
127.187063527265 -67.48430687986072 -776 11448244
127.187063527265 -66.52026951950434 -776 11382450
127.04511367957831 -65.48306672147034 -776.25 11448242
126.90316383189163 -64.44801579254427 -776.5 11447985
126.76121398420496 -63.41511673272615 -776.75 11382448
126.61926413651827 -62.38436954201596 -777 11447983
126.33536444114492 -61.286912520951965 -777.5 11382189
126.19341459345823 -60.26154500301162 -777.75 11513775
126.05146474577155 -59.23832935417922 -778 11448238
125.76756505039819 -58.151631678654915 -778.5 11382701
125.62561520271151 -57.13379570259236 -778.75 11382701
125.48366535502484 -56.11811159563774 -779 11317166
125.34171550733815 -55.10457935779105 -779.25 11382958
125.34171550733815 -54.15452914663627 -779.25 11382703
125.19976565965148 -53.144224712451496 -779.5 11448240
125.19976565965148 -52.19525043585068 -779.5 11382704
125.0578158119648 -51.18817380532782 -779.75 11448241
124.91586596427811 -50.18324904391289 -780 11447984
124.77391611659144 -49.1804761516059 -780.25 11185323
124.63196626890476 -48.17985512840685 -780.5 11251116
124.63196626890476 -47.235184590021916 -780.5 11119528
124.49001642121807 -46.23779137048477 -780.75 10790563
124.49001642121807 -45.294196766653805 -780.75 9934997
124.49001642121807 -44.35060216282283 -780.75 10658978
124.3480665735314 -43.35751268150157 -781 10658979
124.3480665735314 -42.41499401222457 -781 10658979
124.3480665735314 -41.47247534294757 -781 10724772
124.20611672584472 -40.48368959984218 -781.25 10855847
124.20611672584472 -39.542246865119154 -781.25 10921897
124.06416687815803 -38.556688925675665 -781.5 10921897
124.06416687815803 -37.616322125506606 -781.5 11119530
123.92221703047136 -36.63399198972503 -781.75 11119530
123.92221703047136 -35.69470112410994 -781.75 11120044
123.78026718278468 -34.715598791990274 -782 11251373
123.78026718278468 -33.77738386092915 -782 11316908
123.638317335098 -32.80150933247139 -782.25 11251114
123.638317335098 -31.86437033596424 -782.25 11382700
123.49636748741132 -30.891723611168388 -782.5 11382189
123.35441763972464 -29.921228755480474 -782.75 11316396
123.35441763972464 -28.98624162808126 -782.75 11185323
123.21246779203796 -28.018974576055253 -783 11316909
123.07051794435128 -27.053859393137188 -783.25 11185323
123.07051794435128 -26.12102413484591 -783.25 11251116
123.07051794435128 -25.188188876554637 -783.25 11185321
122.9285680966646 -24.227377431852442 -783.5 11316907
122.9285680966646 -23.295618108115136 -783.5 11251114
122.9285680966646 -22.36385878437783 -783.5 11185321
122.9285680966646 -21.432099460640522 -783.5 11250859
122.9285680966646 -20.500340136903215 -783.5 11119530
122.78661824897792 -19.54598429952484 -783.75 11185322
122.64466840129124 -18.5937803312544 -784 11185322
122.50271855360457 -17.643728232091902 -784.25 11053737
122.50271855360457 -16.715196712016503 -784.25 11053736
122.36076870591788 -15.768372416515911 -784.5 11053735
122.2188188582312 -14.823699990123258 -784.75 11053735
122.07686901054453 -13.881179432838541 -785 11053735
121.93491916285784 -12.940810744661766 -785.25 10922151
121.79296931517116 -12.002593925592926 -785.5 10987944
121.65101946748449 -11.066528975632027 -785.75 10922151
121.65101946748449 -10.144453062880443 -785.75 10724771
121.5090696197978 -9.211615916581449 -786 10593184
121.5090696197978 -8.290615938383834 -786 10264219
121.5090696197978 -7.369615960186219 -786 10330012
121.5090696197978 -6.4486159819886035 -786 10132633
121.5090696197978 -5.527616003790988 -786 10395805
121.5090696197978 -4.6066160255933735 -786 10330012
121.5090696197978 -3.685616047395758 -786 10461599
121.65101946748449 -2.7678457608677665 -785.75 10461598
121.65101946748449 -1.845769848116182 -785.75 10396575
121.65101946748449 -0.9236939353645977 -785.75 10396575
121.65101946748449 -0.0016180226130131869 -785.75 10528161
121.65101946748449 0.9204578901385713 -785.75 10593954
121.65101946748449 1.8425338028901554 -785.75 10528161
121.5090696197978 2.761383799987549 -786 10725027
121.36711977211112 3.678081927977004 -786.25 10790563
121.08322007673776 4.587250402096391 -786.75 10658720
120.79932038136441 5.492115137999901 -787.25 10724257
120.65737053367772 6.400205789557603 -787.5 10658464
120.37347083830437 7.29753898358333 -788 10593184
119.94762129524433 8.180886916415172 -788.75 10724770
119.52177175218429 9.057779241923201 -789.5 10658977
118.95397236143756 9.91638256802147 -790.5 10461854
118.10227327531749 10.74055976440816 -792 10395805
116.82472464613737 11.509869962565569 -794.25 10461596
114.97937662621054 12.199568555760125 -797.5 10527389
112.4242793678503 12.780607199042377 -802 10461596
109.15943287105667 13.236846874102786 -807.75 10461598
105.32678698351631 13.570437562041576 -814.5 10527648
101.21024140060261 13.807197916138572 -821.75 10395805
96.80979612231553 13.94067232906996 -829.5 10395805
92.40935084402847 14.00743879965526 -837.25 10395805
88.43475510880144 14.07527554077138 -844.25 10198426
84.88600891663445 14.15386596340404 -850.5 10329755
79.6338645522273 13.881724377535349 -859.75 10263706
77.64656668461379 14.123836084286443 -863.25 10263960
76.22706820774698 14.443407526892454 -865.75 10132631
75.09146942625355 14.797405099210044 -867.75 9935254
74.23977034013348 15.192284408563031 -869.25 9935254
73.67197094938675 15.634501062275229 -870.25 10000790
73.10417155864003 16.068110239555672 -871.25 9935254
72.67832201558 16.52538808901572 -872 9869461
72.39442232020663 17.009562414317283 -872.5 9803668
71.96857277714659 17.455004983683672 -873.25 9737873
71.68467308177324 17.929495897999512 -873.75 9737873
71.54272323408655 18.43626296092671 -874 9738128
71.2588235387132 18.903222333364766 -874.5 9606027
70.97492384333984 19.365877967586943 -875 9276804
70.83297399565316 19.86403755408239 -875.25 9012604
70.5490743002798 20.319161646426785 -875.75 8090986
70.40712445259312 20.811941560152384 -876 6379085
70.26517460490643 21.302569604770046 -876.25 4930353
70.12322475721976 21.791045780279767 -876.5 4864046
70.12322475721976 22.32255744994054 -876.5 4403238
70.12322475721976 22.854069119601313 -876.5 4534569
70.12322475721976 23.385580789262086 -876.5 4075302
70.12322475721976 23.917092458922863 -876.5 3877924
70.12322475721976 24.448604128583636 -876.5 3877410
70.12322475721976 24.98011579824441 -876.5 3876897
70.12322475721976 25.511627467905182 -876.5 3811361
70.26517460490643 26.095858042702726 -876.25 3548960
70.26517460490643 26.62844564691747 -876.25 3483424
70.26517460490643 27.161033251132213 -876.25 3483680
70.40712445259312 27.749567564145636 -876 3352096
70.40712445259312 28.283231102914346 -876 3351839
70.5490743002798 28.874993219589676 -875.75 3416608
70.69102414796647 29.468907205372947 -875.5 3482401
70.69102414796647 30.004722613249598 -875.5 3416608
70.83297399565316 30.601864402694773 -875.25 3219997
71.11687369102651 31.263560377370386 -874.75 3088924
71.40077338639988 31.929560090261873 -874.25 2957595
71.68467308177324 32.59986354136924 -873.75 2891802
72.25247247251995 33.40573097026128 -872.75 2760216
73.10417155864003 34.35361798426183 -871.25 2825752
74.09782049244679 35.382198201802346 -869.5 2759962
75.65926881700027 36.701273196883676 -866.75 2563098
77.5046168369271 38.183886468152885 -863.5 2432025
80.05971409528733 40.049523000596544 -859 2431768
83.1826107443943 42.24223608541596 -853.5 2431767
83.1826107443943 42.8727337340419 -853.5 2365717
86.73135693656128 45.35917128807176 -847.25 2431510
90.56400282410164 48.05003263134032 -840.5 2431510
94.68054840701534 50.95177337117141 -833.25 2497303
98.79709398992905 53.91591831513272 -826 2300696
102.48779002978273 56.70684345992814 -819.5 2104087
105.89458637426304 59.394482663557945 -813.5 2104087
108.73358332799663 61.81099391161838 -808.5 2234904
111.00478089098351 63.94346598946183 -804.5 2169624
112.28232952016363 65.53045246449692 -802.25 2104088
113.55987814934375 67.13680576150345 -800 2038295
114.5535270831505 68.59253199696973 -798.25 2104088
115.12132647389721 69.80510268726212 -797.25 2234904
115.54717601695725 70.93913204312248 -796.5 2300184
115.68912586464394 71.90316751547115 -796.25 2300184
115.83107571233062 72.86935485692776 -796 2300184
115.97302556001729 73.83769406749231 -795.75 2169368
115.97302556001729 74.71673259808512 -795.75 1972759
115.97302556001729 75.59577112867794 -795.75 1973016
116.11497540770398 76.56841407745836 -795.5 2104345
116.11497540770398 77.44852854260515 -795.5 2300954
116.25692525539066 78.42439929504746 -795.25 2563354
116.25692525539066 79.30558969474822 -795.25 2825755
116.39887510307733 80.28468825085245 -795 2957341
116.39887510307733 81.16695458510718 -795 2958623
116.39887510307733 82.04922091936191 -795 3946543
116.39887510307733 82.93148725361664 -795 6578777
116.39887510307733 83.81375358787136 -795 7829360
116.25692525539066 84.59273209295276 -795.25 7960948
116.25692525539066 85.47392249265351 -795.25 7895412
116.25692525539066 86.35511289235427 -795.25 7829619
116.11497540770398 87.12978765921979 -795.5 7829619
116.11497540770398 88.00990212436658 -795.5 7894899
115.97302556001729 88.78134908757019 -795.75 7763312
115.83107571233062 89.55064418166587 -796 7894898
115.68912586464394 90.31778740665361 -796.25 7565676
115.54717601695725 91.08277876253341 -796.5 7499881
115.40522616927058 91.84561824930528 -796.75 7236969
115.2632763215839 92.60630586696921 -797 7040103
115.12132647389721 93.3648416155252 -797.25 6842724
115.12132647389721 94.23742453879419 -797.25 6842724
114.97937662621054 94.99273248368827 -797.5 6645345
115.2632763215839 96.10094129826109 -797 6842724
115.2632763215839 96.97460015608407 -797 6579552
115.2632763215839 97.84825901390703 -797 6579552
115.2632763215839 98.72191787173 -797 6513759
115.12132647389721 99.4729220784082 -797.25 6579042
115.12132647389721 100.34550500167721 -797.25 6513760
136.02087400095033 -126.88030183759956 -762.25 11777727
135.59178607034795 -125.4600625623371 -763 11843263
135.1626981397456 -124.04627889439844 -763.75 11843266
137.02207917235586 -124.72199033839141 -760.5 11843266
136.16390331115113 -122.91656082878482 -762 11909057
136.16390331115113 -121.89227113340617 -762 11909313
135.59178607034795 -120.3601327765232 -763 12040386
135.0196688295448 -118.83660189607198 -764 11645883
134.59058089894245 -117.44648878832065 -764.75 11777725
134.16149296834007 -116.06283128789315 -765.5 11777212
133.7324050377377 -114.68562939478944 -766.25 11777210
133.44634641733612 -113.4364656016158 -766.75 11645623
133.01725848673377 -112.07109898860577 -767.5 11645366
132.7311998663322 -110.83161860641783 -768 11645366
132.7311998663322 -109.83315134033444 -768 11579316
132.3021119357298 -108.48284781107998 -768.75 11645109
132.01605331532824 -107.25520270898572 -769.25 11579829
131.58696538472586 -105.91673445982491 -770 11579829
131.30090676432428 -104.69877276871637 -770.5 11645622
131.1578774541235 -103.59808983199818 -770.75 11580087
130.87181883372193 -102.38765968276742 -771.25 11514037
130.72878952352113 -101.29235641881908 -771.5 11514037
130.72878952352113 -100.30895223649127 -771.5 11514037
130.58576021332036 -99.21687677620483 -771.75 11447987
130.44273090311955 -98.12695318502634 -772 11579317
130.29970159291878 -97.03918146295578 -772.25 11447731
130.15667228271798 -95.95356160999317 -772.5 11447730
129.8706136623164 -94.76572608639576 -773 11448243
129.72758435211563 -93.685485906203 -773.25 11448243
129.44152573171402 -92.50518192448337 -773.75 11448243
129.29849642151325 -91.43032141706045 -774 11316657
129.29849642151325 -90.45767658027232 -774 11382450
129.15546711131245 -89.3860438765113 -774.25 11250863
129.01243780111167 -88.31656304185822 -774.5 11250863
128.86940849091087 -87.24923407631307 -774.75 11382450
128.86940849091087 -86.27981704318685 -774.75 11316657
128.86940849091087 -85.31040001006062 -774.75 11316657
128.86940849091087 -84.3409829769344 -774.75 11250864
129.01243780111167 -83.46409820345723 -774.5 11316655
128.86940849091087 -82.40214891068194 -774.75 11316655
128.7263791807101 -81.34235148701458 -775 11250606
128.5833498705093 -80.28470593245517 -775.25 11448241
128.44032056030852 -79.22921224700369 -775.5 11316655
128.29729125010772 -78.17587043066014 -775.75 11382448
128.01123262970614 -77.0386038310993 -776.25 11447730
127.86820331950535 -75.9906416875256 -776.5 11447984
127.58214469910378 -74.86090662984253 -777 11382448
127.43911538890299 -73.81832415903868 -777.25 11448241
127.2960860787022 -72.77789355734278 -777.5 11514288
127.15305676850141 -71.7396148247548 -777.75 11514288
127.15305676850141 -70.7831090062762 -777.75 11448495
127.15305676850141 -69.8266031877976 -777.75 11448241
127.15305676850141 -68.87009736931901 -777.75 11382448
127.2960860787022 -67.98998479217994 -777.5 11382450
127.2960860787022 -67.03240303914737 -777.5 11382450
127.2960860787022 -66.0748212861148 -777.5 11316657
127.2960860787022 -65.11723953308223 -777.5 11448241
127.2960860787022 -64.15965778004967 -777.5 11382448
127.15305676850141 -63.13106245844742 -777.75 11382448
127.01002745830063 -62.104619005953104 -778 11382191
126.86699814809984 -61.08032742256673 -778.25 11447983
126.72396883789905 -60.0581877082883 -778.5 11382190
126.58093952769825 -59.0381998631178 -778.75 11316909
126.43791021749746 -58.02036388705525 -779 11316909
126.29488090729667 -57.00467978010062 -779.25 11251116
126.15185159709588 -55.99114754225395 -779.5 11120301
126.15185159709588 -55.042173265653126 -779.5 11185837
126.0088222868951 -54.03186883146835 -779.75 11316909
125.86579297669431 -53.02371626639152 -780 11382702
125.72276366649352 -52.01771557042262 -780.25 11250862
