VERSION 0.7 
FIELDS x y z rgb 
SIZE 4 4 4 4 
TYPE F F F U 
COUNT 1 1 1 1 
WIDTH 893 
HEIGHT 1 
VIEWPOINT 0 0 0 1 0 0 0 
POINTS 893 
DATA ascii 
-154.4834742880515 83.04290866928487 -732 8749188
-154.6275820066038 84.27485184557187 -731.75 9078153
-154.6275820066038 85.4293296219808 -731.75 8749188
-154.33936656949922 86.42242099130978 -732.25 8486014
-153.90704341384236 87.32943948432894 -733 8683392
-153.90704341384236 88.47853758796802 -733 8881028
-153.61882797673778 89.45979367720335 -733.5 8947078
-153.04239710252864 91.40939464102635 -734.5 8881799
-152.75418166542406 92.37773951561405 -735 9013385
-152.61007394687178 93.43000539740362 -735.25 9144971
-152.4659662283195 94.48011941008525 -735.5 9144970
-152.17775079121492 95.43770493913325 -736 8816005
-151.88953535411034 96.39098672996538 -736.5 8354683
-151.60131991700575 97.33996478258163 -737 8288891
-151.1689967613489 98.1910346787944 -737.75 8223098
-150.1602427314829 98.65692755671706 -739.5 8946821
-149.1514887016169 102.44853414095846 -741.25 8683906
-149.1514887016169 104.67571866767466 -741.25 8881026
-149.43970413872145 110.45671125013561 -740.75 8223098
-149.58381185727376 118.38096735211087 -740.5 8749960
-51.061087405629394 -47.6301448538623 -910.75 9539485
-51.34714391770574 -47.51071989438715 -910.25 10000036
-51.6332004297821 -47.38699119669613 -909.75 10657965
-51.6332004297821 -46.998578822713256 -909.75 11118004
-51.91925694185846 -46.86839451769842 -909.25 11381434
-52.63439822204934 -47.11802077425785 -908 11644607
-52.9204547341257 -46.97600118914935 -907.5 11776193
-53.206511246202055 -46.829677865824976 -907 11907779
-53.49256775827841 -46.67905080428472 -906.5 11973574
-53.77862427035476 -46.52412000452859 -906 12039367
-54.06468078243112 -46.364885466556586 -905.5 12170951
-54.06468078243112 -45.95818220515624 -905.5 12236743
-54.350737294507475 -45.79249205986042 -905 12171462
-54.63679380658383 -45.62249817634872 -904.5 12237255
-54.92285031866018 -45.44820055462115 -904 12368589
-55.351935086774716 -45.38687794906806 -903.25 12434124
-55.78101985488925 -45.31909973619115 -902.5 12565452
-56.21010462300378 -45.244865915990424 -901.75 12565452
-56.639189391118315 -45.164176488465884 -901 12697036
-57.21130241527103 -45.19000646979201 -900 12960208
-57.783415439423734 -45.20722897468638 -899 12829135
-58.35552846357645 -45.215844003149 -898 13026260
-58.927641487729154 -45.21585155517987 -897 13092053
-59.642782767920046 -45.31592290873758 -895.75 13092053
-60.21489579207275 -45.29763957335097 -894.75 13092564
-60.21489579207275 -44.84467112612995 -894.75 13158357
-60.930037072263644 -44.91892005039241 -893.5 13223893
-61.50215009641635 -44.87804208937244 -892.5 13289685
-62.21729137660724 -44.931848257109486 -891.25 13289685
-62.93243265679813 -44.97489507930683 -890 13486807
-63.64757393698902 -45.00718255596449 -888.75 13486807
-64.36271521717991 -45.02871068708246 -887.5 13487062
-65.07785649737079 -45.03947947266073 -886.25 13552855
-65.93602603359986 -45.13740084511822 -884.75 13618648
-66.79419556982893 -45.22241100292809 -883.25 13553368
-67.65236510605799 -45.29450994609032 -881.75 13487575
-68.51053464228706 -45.35369767460492 -880.25 13553368
-69.22567592247795 -45.306365994268866 -879 13487575
-69.79778894663065 -45.15574270874404 -878 13553368
-70.36990197078336 -44.99651194678747 -877 13487575
-70.94201499493607 -44.82867370839915 -876 13618648
-71.37109976305061 -44.562923537591914 -875.25 13618648
-71.65715627512697 -44.20248923802767 -874.75 13684441
-72.08624104324149 -43.92490378712677 -874 13684441
-72.37229755531784 -43.55478607657681 -873.5 13750234
-72.6583540673942 -43.18036462781097 -873 13750489
-72.94441057947056 -42.80163944082925 -872.5 13816538
-73.23046709154691 -42.418610515631656 -872 13882331
-73.51652360362327 -42.03127785221818 -871.5 13882331
-73.80258011569963 -41.63964145058884 -871 14013406
-74.08863662777598 -41.24370131074361 -870.5 14144992
-74.37469313985234 -40.84345743268251 -870 14079712
-74.94680616400504 -40.59384816819253 -869 14211296
-75.37589093211957 -40.25923818593127 -868.25 14277089
-76.37708872438682 -40.219441823488424 -866.5 14408675
-77.37828651665406 -40.16458237729001 -864.75 14342882
-78.66554082099766 -40.240990722691265 -862.5 14474468
-80.09582338137943 -40.37012174924473 -860 14540260
-81.52610594176122 -40.47773408471882 -857.5 14474470
-83.09941675818116 -40.63376536312923 -854.75 14606056
-84.67272757460111 -40.76612608135232 -852 14671847
-86.24603839102107 -40.87481623938809 -849.25 14737640
-87.67632095140284 -40.893126006882724 -846.75 14803433
-89.2496317678228 -40.95555097909782 -844 14869226
-90.67991432820457 -40.929747429879725 -841.5 15001066
-92.11019688858636 -40.88242518958224 -839 15000812
-93.6835077050063 -40.87599035034331 -836.25 15001582
-95.39984677746443 -40.90721510850101 -833.25 13422810
-97.25921410596074 -40.972871660393444 -830 10659247
-99.40463794653341 -41.12891049083472 -826.25 6580078
-101.69309004314425 -41.31077363857898 -822.25 3817026
-104.41062690786963 -41.629286138700465 -817.5 2960944
-107.41422028467134 -42.01881409539936 -812.25 3092271
-110.56084191751125 -42.41802735109168 -806.75 3421236
-113.99352006242752 -42.877496717821714 -800.75 3421236
-117.28316995130561 -43.23259854480902 -795 3552822
-120.71584809622186 -43.58985412891198 -789 3881787
-123.7194414730236 -43.74375241829162 -783.75 3684408
-126.58000659378715 -43.80296657891425 -778.75 3750199
-128.86845869039797 -43.625467585632805 -774.75 3684406
-130.7278260188943 -43.27150966147726 -771.5 4013371
-132.15810857927607 -42.75077621743334 -769 4473922
-133.15930637154332 -42.072950664486775 -767.25 4737094
-134.01747590777236 -41.33594682306419 -765.75 4342338
-134.73261718796326 -40.54299249682749 -764.5 3947580
-135.30473021211597 -39.69731548943858 -763.5 3815994
-135.87684323626868 -38.843031005617924 -762.5 3947580
-136.4489562604214 -37.980139045365505 -761.5 4012860
-136.87804102853593 -37.06990407673073 -760.75 4144446
-137.45015405268865 -36.19087309816878 -759.75 4210239
-137.87923882080318 -35.26665098033241 -759 4078910
-138.4513518449559 -34.37148098346092 -758 3881787
-138.88043661307043 -33.433271716422944 -757.25 3815994
-139.30952138118494 -32.48860684206116 -756.5 3881787
-139.73860614929947 -31.537486360375556 -755.75 4144961
-140.167690917414 -30.579910271366142 -755 4276804
-140.59677568552854 -29.61587857503291 -754.25 4671562
-140.8828321976049 -28.616339150410976 -753.75 5526872
-141.31191696571943 -27.640472173984083 -753 4803402
-141.5979734777958 -26.631249338376428 -752.5 4540487
-142.31311475798668 -24.624640835262493 -751.25 5131854
-142.8852277821394 -23.648775746843317 -750.25 4737096
-143.31431255025393 -22.64170666835132 -749.5 4539204
-143.74339731836847 -21.6281819825355 -748.75 4407875
-144.17248208648297 -20.608201689395873 -748 4933450
-144.45853859855933 -19.562397078953264 -747.5 5789273
-144.7445951106357 -18.51228873029478 -747 6052956
-145.03065162271204 -17.457876643420423 -746.5 5131854
-145.3167081347884 -16.399160818330184 -746 5197903
-145.45973639082658 -15.321076283260787 -745.75 5066317
-145.45973639082658 -14.226850841874134 -745.75 5329487
-145.45973639082658 -13.13262540048748 -745.75 5329231
-145.45973639082658 -12.038399959100827 -745.75 5460817
-145.3167081347884 -10.933413284166766 -746 5789783
-145.17367987875022 -9.830578478340644 -746.25 6052699
-145.17367987875022 -8.73850490606193 -746.25 6381407
-145.17367987875022 -7.646431333783216 -746.25 5855577
-145.17367987875022 -6.554357761504502 -746.25 5789785
-145.17367987875022 -5.462284189225787 -746.25 6118751
-145.17367987875022 -4.370210616947073 -746.25 6184544
-145.17367987875022 -3.278137044668358 -746.25 5987165
-145.17367987875022 -2.1860634723896437 -746.25 6118751
-145.17367987875022 -1.0939899001109294 -746.25 6776681
-145.17367987875022 -0.0019163278322151512 -746.25 6316130
-145.17367987875022 1.0901572444464993 -746.25 5723993
-145.74579290290293 3.287208051620692 -745.25 5658198
-146.0318494149793 4.392189062531603 -744.75 5987163
-146.603962439132 5.51222938118265 -743.75 5987161
-147.17607546328472 6.640877176265451 -742.75 6513505
-147.74818848743743 7.778132447780005 -741.75 6776421
-148.17727325555197 8.915389607302275 -741 6710885
-148.74938627970468 10.068783897126368 -740 6250076
-149.035442791781 11.20927074831826 -739.5 6052443
-149.32149930385737 12.354061337726032 -739 6512994
-149.32149930385737 13.477337012069853 -739 6907752
-149.32149930385737 14.600612686413672 -739 6710887
-149.32149930385737 15.723888360757494 -739 6316128
-149.32149930385737 16.847164035101315 -739 6447713
-149.1784710478192 17.953226644589343 -739.25 6316127
-149.035442791781 19.057137384969437 -739.5 6316128
-148.89241453574286 20.15889625624159 -739.75 7303023
-148.74938627970468 21.258503258405806 -740 7763061
-148.6063580236665 22.35595839146208 -740.25 7105644
-148.46332976762832 23.45126165541042 -740.5 7039851
-148.46332976762832 24.568081722430424 -740.5 7039851
-148.46332976762832 25.684901789450432 -740.5 7697269
-148.74938627970468 26.853362939045525 -740 7499891
-149.035442791781 28.02612782685649 -739.5 7500147
-149.46452755989554 29.23116886327882 -738.75 7829367
-149.89361232801008 30.442665507024966 -738 8026746
-150.3226970961246 31.660617758094922 -737.25 7829367
-150.60875360820097 32.853825402431305 -736.75 7763831
-150.75178186423915 34.0190606363722 -736.5 7763576
-150.75178186423915 35.153095656255715 -736.5 7960955
-150.89481012027733 36.32155869385853 -736.25 8224127
-150.89481012027733 37.45666964829601 -736.25 8487297
-151.0378383763155 38.62836048956073 -736 8092539
-151.18086663235368 39.80220319993338 -735.75 8158332
-151.32389488839186 40.978197779413975 -735.5 8684419
-151.32389488839186 42.11653653751336 -735.5 8947846
-151.32389488839186 43.254875295612756 -735.5 8750469
-151.32389488839186 44.39321405371214 -735.5 9013384
-151.18086663235368 45.48851731766048 -735.75 9737364
-150.75178186423915 47.62748087497435 -736.5 9211020
-150.4657253521628 48.668989299231946 -737 8816007
-150.3226970961246 49.753533217640594 -737.25 8749956
-150.17966884008644 50.8359252669413 -737.5 8618370
-150.17966884008644 51.96565654860894 -737.5 9144200
-150.03664058404826 53.04482079424774 -737.75 9209993
-149.89361232801008 54.1218331707786 -738 9209993
-149.7505840719719 55.19669367820153 -738.25 9275786
-149.60755581593372 56.26940231651651 -738.5 9736337
-149.46452755989554 57.33995908572356 -738.75 9604751
-149.32149930385737 58.40836398582267 -739 9604751
-149.1784710478192 59.47461701681384 -739.25 9802130
-149.035442791781 60.538718178697074 -739.5 9473164
-149.60755581593372 61.89654003377531 -738.5 9473164
-149.7505840719719 63.08221802424162 -738.25 9604750
-149.7505840719719 64.20872150224736 -738.25 9473421
-149.60755581593372 65.27282266413059 -738.5 9276555
-149.60755581593372 66.39825020758234 -738.5 9737106
-149.46452755989554 67.45912356580367 -738.75 9671057
-149.32149930385737 68.51784505491705 -739 9802899
-149.46452755989554 69.70782678359924 -738.75 10066327
-149.60755581593372 70.89996038138938 -738.5 10526365
-149.7505840719719 72.09424584828744 -738.25 9670286
-150.03664058404826 73.36061704229374 -737.75 9143943
-150.4657253521628 74.70230176707015 -737 8815235
-151.0378383763155 76.1225278262786 -736 8881028
-151.60995140046822 77.5513613619188 -735 9144714
-152.3250926806591 79.0630399702069 -733.75 8684163
-153.04023396085 80.5854779240347 -732.5 7631476
-153.46931872896454 81.96589629275401 -731.75 7697270
-153.7553752410409 83.27530486891906 -731.25 9012616
-153.46931872896454 85.4293296219808 -731.75 8749444
-152.75417744877365 86.18034138068987 -733 8288890
-152.03903616858275 86.92059379385924 -734.25 8683649
-151.46692314443004 87.73293193413683 -735.25 8947335
-150.89481012027733 88.53666259798267 -736.25 8947335
-150.89481012027733 89.67177355242015 -736.25 8881542
-150.4657253521628 90.54866587792819 -737 9013128
-150.3226970961246 91.59340021783997 -737.25 9342093
-150.3226970961246 92.72420743406157 -737.25 9210507
-150.17966884008644 93.76571397031145 -737.5 8683906
-150.03664058404826 94.80506863745339 -737.75 8552320
-149.89361232801008 95.8422714354874 -738 8354683
-149.60755581593372 96.78479388077983 -738.5 8420477
-149.46452755989554 97.81661700604398 -738.75 8288891
-149.035442791781 98.65692755671706 -739.5 8749441
-150.4657253521628 101.86749738568392 -737 9078151
-150.89481012027733 106.69843786898238 -736.25 8749440
-151.0378383763155 107.9357607180392 -736 8025717
-151.18086663235368 110.3124982597494 -735.75 8157305
-151.18086663235368 111.44976108329483 -735.75 8486270
-150.89481012027733 112.37399264116978 -736.25 8749442
-150.17966884008644 114.1008770403289 -737.5 8880774
-51.52741204923677 -48.43065149006166 -909.25 9341852
-51.52741204923677 -48.04008724697085 -909.25 10131367
-51.52741204923677 -47.64952300388004 -909.25 10855345
-51.669360842760845 -47.38914872982721 -909 11249591
-51.52741204923677 -46.86839451769842 -909.25 11512764
-51.95325842980898 -46.861944574397754 -908.5 11710399
-52.237156016857114 -46.72207685839719 -908 11842240
-52.52105360390525 -46.577905404180754 -907.5 11907779
-52.80495119095339 -46.42943021174844 -907 12039365
-53.08884877800153 -46.27665128110025 -906.5 12105157
-53.08884877800153 -45.87425175791578 -906.5 12105158
-53.51469515857373 -45.836599712550004 -905.75 12236998
-53.79859274562187 -45.67198550180816 -905.25 12236998
-54.22443912619407 -45.62249817634872 -904.5 12302791
-54.50833671324221 -45.44820055462115 -904 12631245
-54.93418309381441 -45.38687794906806 -903.25 12631243
-55.360029474386614 -45.31909973619115 -902.5 12697036
-55.785875854958825 -45.244865915990424 -901.75 12828621
-56.21172223553103 -45.164176488465884 -901 12894158
-56.63756861610323 -45.07703145361753 -900.25 12894928
-57.063414996675434 -44.98343081144536 -899.5 12960467
-57.63121017077171 -44.99419770901592 -898.5 13026260
-58.199005344867984 -44.99635713015472 -897.5 13157846
-58.199005344867984 -44.55522396302736 -897.5 13092565
-58.76680051896425 -44.544472169518535 -896.5 13158100
-59.33459569306053 -44.525112899577955 -895.5 13158613
-60.47018604125307 -44.91892005039241 -893.5 13224405
-61.03798121534935 -44.87804208937244 -892.5 13289941
-61.74772518296969 -44.931848257109486 -891.25 13355478
-62.45746915059003 -44.97489507930683 -890 13487064
-63.025264324686304 -44.90604281988367 -889 13552857
-63.735008292306645 -44.92864688555561 -887.75 13618648
-64.44475225992699 -44.94049160568785 -886.5 13684185
-65.15449622754733 -44.9415769802804 -885.25 13619161
-65.86424019516767 -44.93190300933326 -884 13619161
-66.57398416278801 -44.91146969284643 -882.75 13619161
-67.28372813040835 -44.880277030819904 -881.5 13619161
-67.99347209802869 -44.83832502325369 -880.25 13619159
-68.70321606564903 -44.78561367014778 -879 13619159
-69.2710112397453 -44.630686646407085 -878 13619159
-69.83880641384158 -44.46715214623464 -877 13618905
-70.26465279441378 -44.205705713643276 -876.25 13618905
-70.69049917498599 -43.937803673728105 -875.5 13684698
-71.25829434908226 -43.75059861336833 -874.5 13684697
-71.68414072965447 -43.46870942425156 -873.75 13750490
-71.9680383167026 -43.09536391003969 -873.25 13816540
-72.39388469727481 -42.80163944082925 -872.5 13882333
-72.67778228432294 -42.418610515631656 -872 13948124
-72.96167987137108 -42.03127785221818 -871.5 14013917
-73.24557745841922 -41.63964145058884 -871 14144992
-73.38752625194329 -41.16408026574218 -870.75 14210785
-73.67142383899142 -40.76491232223505 -870.25 14145503
-74.38116780661176 -40.59384816819253 -869 14342882
-74.94896298070803 -40.33563142727079 -868 14342882
-75.65870694832837 -40.14412451670286 -866.75 14474468
-76.65234850299686 -40.09034100505842 -865 14540261
-77.7879388511894 -40.094659847336025 -863 14606054
-79.06547799290601 -40.15385323987378 -860.75 14540261
-80.48496592814669 -40.26469337900977 -858.25 14606055
-81.90445386338737 -40.35401482706638 -855.75 14606055
-83.46589059215214 -40.490679283505344 -853 14803433
-84.88537852739282 -40.53588741484921 -850.5 14803433
-86.3048664626335 -40.5595768551137 -848 14869226
-87.86630319139825 -40.627381500098636 -845.25 15066859
-89.28579112663893 -40.60695762365039 -842.75 15198445
-90.70527906187961 -40.56501505612275 -840.25 15198446
-92.26671579064437 -40.56395988965367 -837.5 15264496
-93.97010131293318 -40.60056432058121 -834.5 13422552
-95.67348683522201 -40.6113463222135 -831.5 10922419
-97.66076994455895 -40.71466247150257 -828 6777456
-99.93195064094405 -40.90405716112461 -824 4013635
-102.3450801308532 -41.11604836438772 -819.75 2960945
-105.18405600133457 -41.45930924725822 -814.75 3026478
-108.02303187181595 -41.75953274796995 -809.75 3421236
-111.14590532934544 -42.12431609793526 -804.25 4013373
-114.41072758039901 -42.494481008678136 -798.5 3618615
-117.67554983145259 -42.81515292993843 -792.75 3683895
-120.65647449545801 -42.985190237627606 -787.5 3618614
-123.49545036593938 -43.060543416559774 -782.5 3684406
-125.90857985584854 -42.947602384524195 -778.25 3552820
-128.03781175870955 -42.703393560888934 -774.5 3618613
-129.7411972809984 -42.28810547914943 -771.5 3881785
-131.16068521623907 -41.75661268956582 -769 4342336
-132.43822435795568 -41.15948600418238 -766.75 4737096
-133.43186591262415 -40.45691395649452 -765 4605510
-134.42550746729265 -39.739278825051095 -763.25 4079166
-135.135251434913 -38.92480580773501 -762 3815994
-135.84499540253333 -38.09957344487923 -760.75 4012860
-136.4127905766296 -37.22484620453316 -759.75 4078653
-136.8386369572018 -36.30385189035869 -759 4210239
-137.264483337774 -35.376401968860414 -758.25 4210495
-137.83227851187027 -34.47800416832702 -757.25 4013116
-138.25812489244248 -33.536567097627135 -756.5 3815994
-138.96786886006282 -32.65538613796496 -755.25 4013373
-139.53566403415908 -31.731165908136305 -754.25 4210753
-139.9615104147313 -30.767134211803075 -753.5 4342596
-140.3873567953035 -29.796646908146027 -752.75 5197906
-140.67125438235163 -28.790651876200283 -752.25 5395285
-140.95515196939976 -27.780353106038657 -751.75 5329746
-141.09710076292384 -26.73885034580421 -751.5 4934988
-141.2390495564479 -25.695195716461825 -751.25 4868938
-141.52294714349605 -24.67413760076051 -750.75 4868682
-141.80684473054419 -23.648775746843317 -750.25 4802889
-142.2326911111164 -22.64170666835132 -749.5 5065548
-142.51658869816453 -21.606661403448403 -749 5065035
-142.94243507873674 -20.58775704486274 -748.25 5196878
-143.36828145930895 -19.562397078953264 -747.5 5920346
-143.65217904635708 -18.51228873029478 -747 5723991
-143.9360766334052 -17.457876643420423 -746.5 5329233
-144.21997422045334 -16.399160818330184 -746 5197647
-144.36192301397742 -15.321076283260787 -745.75 4868681
-144.36192301397742 -14.226850841874134 -745.75 4934473
-144.36192301397742 -13.13262540048748 -745.75 5395024
-144.21997422045334 -12.026562790999451 -746 5789782
-144.0780254269293 -10.922652050619359 -746.25 6052954
-144.0780254269293 -9.830578478340644 -746.25 6052697
-144.21997422045334 -8.7471142705014 -746 6710886
-144.36192301397742 -7.661498193554217 -745.75 6316129
-144.50387180750147 -6.573730247499096 -745.5 6052958
-144.78776939454963 -5.489191993113599 -745 6250337
-144.92971818807368 -4.396044374288632 -744.75 6250336
-145.07166698159776 -3.300744886355726 -744.5 6315872
-145.07166698159776 -2.201139772199227 -744.5 6249823
-145.07166698159776 -1.101534658042729 -744.5 6578787
-144.92971818807368 -0.00192765587851396 -744.75 6512994
-144.92971818807368 1.0966015237240154 -744.75 6184286
-144.78776939454963 2.1929807222263227 -745 6184029
-144.92971818807368 3.293659882929074 -744.75 6052956
-145.2136157751218 4.4007927629479235 -744.25 6512994
-145.49751336216997 5.51222938118265 -743.75 6512993
-146.06530853626623 6.640877176265451 -742.75 6710372
-146.6331037103625 7.778132447780005 -741.75 6776166
-147.20089888445878 8.923995195726313 -740.75 6776166
-147.626745265031 10.068783897126368 -740 6578787
-147.91064285207912 11.20927074831826 -739.5 6184544
-148.05259164560317 12.342227945640088 -739.25 6118751
-147.91064285207912 13.451518358790025 -739.5 6776681
-147.76869405855504 14.558656902832025 -739.75 6908778
-147.4847964715069 15.648582382018233 -740.25 6448225
-147.34284767798283 16.750341253290387 -740.5 6579298
-146.77505250388657 17.79830906088723 -741.5 6579298
-146.6331037103625 18.8925363902816 -741.75 6579298
-146.49115491683844 19.98461185056803 -742 7368814
-146.34920612331436 21.074535441746523 -742.25 7960953
-146.34920612331436 22.183823966888745 -742.25 7237230
-146.34920612331436 23.293112492030964 -742.25 7434609
-146.6331037103625 24.449738361532397 -741.75 7105644
-146.91700129741065 25.610667969249707 -741.25 7236718
-147.4847964715069 26.82754239775798 -740.25 7170925
-148.05259164560317 28.053024302698006 -739.25 7236718
-148.62038681969946 29.287113684069787 -738.25 7697781
-149.18818199379572 30.529810541873317 -737.25 8092539
-149.61402837436793 31.750990596605185 -736.5 7829367
-149.89792596141606 32.947426044603475 -736 7895161
-150.03987475494014 34.11588908220628 -735.75 8092540
-150.03987475494014 35.2531519057517 -735.75 8026749
-149.755977167892 36.32155869385853 -736.25 7960955
-149.47207958084388 37.38566174374947 -736.75 7697781
-149.04623320027167 38.40888116859731 -737.5 7763574
-148.7623356132235 39.46330080750254 -738 7960953
-148.47843802617538 40.51341670819189 -738.5 8618883
-148.19454043912725 41.55922887066536 -739 8684676
-147.91064285207912 42.60073729492296 -739.5 8684676
-147.626745265031 43.637941980964676 -740 8947848
-147.4847964715069 44.71387842294157 -740.25 9211020
-147.34284767798283 45.78766299581052 -740.5 9013641
-147.20089888445878 46.85929569957154 -740.75 9145228
-147.20089888445878 47.975039832037574 -740.75 9013642
-147.20089888445878 49.090783964503615 -740.75 8749956
-147.34284767798283 50.254943263890546 -740.5 8749700
-147.4847964715069 51.42125443238542 -740.25 8881542
-147.626745265031 52.58971746998823 -740 9144457
-147.76869405855504 53.760332376698976 -739.75 9209993
-147.91064285207912 54.93309915251766 -739.5 9209993
-147.91064285207912 56.054222957753545 -739.5 9999509
-148.05259164560317 57.23021753723414 -739.25 9341579
-148.05259164560317 58.35241727702399 -739.25 9604751
-148.19454043912725 59.53163966016649 -739 9473165
-148.33648923265133 60.713013912416926 -738.75 9538956
-148.47843802617538 61.89654003377531 -738.5 9604749
-148.62038681969946 63.08221802424162 -738.25 10131093
-149.47207958084388 64.5766797916585 -736.75 9802128
-149.18818199379572 65.58483424474306 -737.25 9210761
-148.7623356132235 66.52520670893527 -738 9737105
-148.47843802617538 67.5236777510341 -738.5 9605519
-148.19454043912725 68.51784505491705 -739 9737105
-148.05259164560317 69.5744146749225 -739.25 10197656
-148.19454043912725 70.76439640360469 -739 10658463
-148.33648923265133 71.95653000139482 -738.75 9538957
-148.47843802617538 73.15081546829289 -738.5 9538956
-148.7623356132235 74.41826259685315 -738 9538956
-149.04623320027167 75.69001346362928 -737.5 9078919
-149.18818199379572 76.89290640695911 -737.25 9342093
-149.47207958084388 78.17218881561303 -736.75 8223612
-149.61402837436793 79.38046143171269 -736.5 7368303
-149.89792596141606 80.6672753822444 -736 7565939
-149.89792596141606 81.80346227123584 -736 8947079
-149.89792596141606 82.9396491602273 -736 9144458
-149.61402837436793 85.05063653113025 -736.5 8092280
-149.3301307873198 86.02113327482589 -737 8486782
-149.18818199379572 87.07017135295355 -737.25 8947334
-149.18818199379572 88.20097856917515 -737.25 8947335
-149.3301307873198 89.41678272715261 -737 8881541
-149.47207958084388 90.634738754238 -736.75 9209737
-149.47207958084388 91.76769783956755 -736.75 9670544
-149.61402837436793 92.98888167031484 -736.5 9341579
-149.755977167892 94.21221737017008 -736.25 8749186
-149.755977167892 95.34732832460756 -736.25 8617600
-149.61402837436793 96.39098672996538 -736.5 8552063
-149.47207958084388 97.43249326621526 -736.75 8420477
-149.3301307873198 98.4718479333572 -737 8420477
-149.3301307873198 101.86749738568392 -737 8749188
-148.9042844067476 106.09162210859006 -737.75 8288891
-149.04623320027167 107.32248935032308 -737.5 8025717
-149.3301307873198 108.65879629033736 -737 8091254
-149.755977167892 115.77932550448223 -736.25 9538704
-49.86774317752546 -47.22989153576261 -911.5 9604766
-49.86774317752546 -46.84901070365752 -911.5 10197161
-50.4312205015653 -46.99319348592026 -910.5 10723502
-51.276436487625055 -47.38914872982721 -909 11315385
-51.417305818635015 -47.12662258666645 -908.75 11513020
-51.699044480654926 -46.9899826743278 -908.25 11776704
-51.839913811664886 -46.72207685839719 -908 11776704
-52.121652473684804 -46.577905404180754 -907.5 11973827
-52.40339113570472 -46.42943021174844 -907 12039619
-52.40339113570472 -46.02918255767191 -907 12171205
-52.8259991287346 -45.99691018507598 -906.25 12171205
-53.10773779075452 -45.836599712550004 -905.75 12302791
-53.38947645277444 -45.67198550180816 -905.25 12368327
-53.67121511479436 -45.503067552850425 -904.75 12368328
-54.093823107824235 -45.44820055462115 -904 12565708
-54.516431100854106 -45.38687794906806 -903.25 12631499
-54.939039093883984 -45.31909973619115 -902.5 12697292
-55.36164708691386 -45.244865915990424 -901.75 12894414
-55.78425507994374 -45.164176488465884 -901 12894927
-56.20686307297362 -45.07703145361753 -900.25 12960721
-56.62947106600349 -44.98343081144536 -899.5 13092306
-57.05207905903337 -44.883374561949374 -898.75 13092053
-57.05207905903337 -44.44762106759186 -898.75 13157846
-57.474687052063246 -44.33788140711015 -898 13158357
-58.03816437610308 -44.32928148270927 -897 13158357
-58.88338036216284 -44.525112899577955 -895.5 13158612
-59.58772701721263 -44.60258962750232 -894.25 13290196
-60.292073672262426 -44.66930700988699 -893 13290196
-60.85555099630226 -44.62197344154321 -892 13487319
-61.55989765135205 -44.668248067402466 -890.75 13487064
-62.40511363741181 -44.804903083802856 -889.25 13618649
-63.109460292461605 -44.82858308402876 -888 13684440
-63.813806947511395 -44.84150373871497 -886.75 13750234
-64.5181536025612 -44.84366504786149 -885.5 13684954
-65.36336958862094 -44.93190300933326 -884 13684954
-66.06771624367074 -44.91146969284643 -882.75 13816540
-66.77206289872053 -44.880277030819904 -881.5 13684953
-67.33554022276037 -44.74471682905065 -880.5 13750746
-68.03988687781016 -44.69308141049872 -879.25 13750745
-68.60336420185 -44.53923032131199 -878.25 13684952
-69.02597219487988 -44.28639136515238 -877.5 13684954
-69.58944951891972 -44.11640125765612 -876.5 13684954
-70.01205751194959 -43.84957515229491 -875.75 13750747
-70.43466550497946 -43.57629343960989 -875 13750747
-70.9981428290193 -43.3826327719263 -874 13882333
-71.27988149103922 -43.01036319226841 -873.5 13882333
-71.7024894840691 -42.717714657611936 -872.75 13948126
-71.98422814608902 -42.33576166696831 -872.25 14079712
-72.12509747709898 -41.86773202399944 -872 14145505
-72.4068361391189 -41.47824749147803 -871.5 14276578
-72.82944413214877 -41.16408026574218 -870.75 14342371
-73.11118279416868 -40.76491232223505 -870.25 14342882
-73.3929214561886 -40.361440640512036 -869.75 14408675
-73.95639878022844 -40.10645170325221 -868.75 14474468
-74.66074543527823 -39.91817259634619 -867.5 14540260
-75.50596142133799 -39.79337551613206 -866 14540261
-76.63291606941766 -39.801998096625546 -864 14606054
-78.04160937951725 -39.93758473050283 -861.5 14606054
-79.45030268961683 -40.05165267330072 -859 14737641
-81.14073466173635 -40.28407719305066 -856 14671848
-82.69029730284589 -40.4218175840436 -853.25 14803433
-84.23985994395544 -40.53588741484921 -850.5 14935274
-85.789422585065 -40.626286685467505 -847.75 15066859
-87.19811589516458 -40.627381500098636 -845.25 15198445
-88.46593987425422 -40.54239966240452 -843 15330031
-89.8746331843538 -40.50153302943086 -840.5 15330031
-91.28332649445339 -40.439147705377806 -838 15396081
-92.69201980455298 -40.35524369024537 -835.5 13817310
-94.38245177667248 -40.37032943009354 -832.5 11054003
-96.35462241081191 -40.47794931759849 -829 6974579
-98.4676623759613 -40.61354539151435 -825.25 3882048
-100.8624410031306 -40.83091626754731 -821 2829358
-103.39808896130985 -41.06765585355942 -816.5 3026735
-106.35634491251899 -41.43028544640908 -811.25 3486772
-109.4554701947381 -41.80152440369821 -805.75 3815481
-112.69546480796716 -42.1781449217649 -800 4604998
-115.9354594211962 -42.505272450349004 -794.25 4868169
-119.0345847034153 -42.73233617740627 -788.75 3750199
-121.85197132361448 -42.813069029108284 -783.75 3684406
-124.24674995078378 -42.70550766984255 -779.5 3487027
-126.21892058492321 -42.41933551059478 -776 3487027
-127.90935255704271 -42.01050303617909 -773 3684406
-129.3180458671423 -41.485465853919294 -770.5 4013371
-130.30413118421203 -40.806564366418755 -768.75 4737096
-131.29021650128172 -40.11259979516265 -767 5000268
-132.27630181835144 -39.40357214015098 -765.25 5000268
-132.98064847340123 -38.59770659926665 -764 4079166
-133.825864459461 -37.8208931793472 -762.5 4341825
-134.5302111145108 -36.992433012829515 -761.25 4144446
-135.37542710057053 -36.19087309816878 -759.75 4341825
-136.07977375562032 -35.33981830601775 -758.5 4276032
-136.78412041067014 -34.47800416832702 -757.25 4144702
-137.48846706571993 -33.60543068509659 -756 4013373
-138.19281372076972 -32.722097856326485 -754.75 4210752
-138.75629104480956 -31.79572575738989 -753.75 4539717
-139.17889903783944 -30.829542191948722 -753 4539718
-139.46063769985935 -29.82677496366488 -752.5 4671303
-139.6015070308693 -28.790651876200283 -752.25 5000525
-139.6015070308693 -26.65814959023337 -752.25 5263953
-139.6015070308693 -25.591898447249918 -752.25 5198160
-139.74237636187925 -24.550395687015474 -752 4934988
-140.02411502389918 -23.530413505868125 -751.5 5066318
-140.3058536859191 -22.506127586504903 -751 5329490
-140.58759234793902 -21.477537928925802 -750.5 5263440
-141.0102003409689 -20.465089177663955 -749.75 5131341
-141.2919390029888 -19.426816109099136 -749.25 5526612
-141.7145469960187 -18.402532077743626 -748.5 5526612
-141.9962856580386 -17.354575598193083 -748 5395026
-142.27802432005853 -16.30231538042666 -747.5 5658198
-142.55976298207844 -15.24575142444436 -747 5460819
-142.7006323130884 -14.170894693036871 -746.75 5197647
-142.84150164409837 -13.09388609252144 -746.5 5526612
-142.98237097510832 -12.014725622898073 -746.25 6118749
-143.12324030611828 -10.933413284166766 -746 6250335
-143.4049789681382 -9.859634375320962 -745.5 6316128
-143.54584829914816 -8.77294236381981 -745.25 6447714
-143.6867176301581 -7.684098483210719 -745 6513767
-143.82758696116807 -6.593102733493691 -744.75 6579559
-143.96845629217805 -5.499955114668723 -744.5 6842474
-144.109325623188 -4.404655626735818 -744.25 6447715
-144.25019495419795 -3.307204269694974 -744 6513507
-144.25019495419795 -2.205447286430537 -744 6250079
-144.3910642852079 -1.104768125727786 -743.75 6381665
-144.53193361621786 -0.0019370959170963006 -743.5 6710629
-144.53193361621786 1.1019717564552791 -743.5 6447457
-144.53193361621786 2.205880608827654 -743.5 6579299
-144.53193361621786 3.3097894612000296 -743.5 6710886
-144.53193361621786 4.413698313572405 -743.5 6776423
-144.53193361621786 5.51760716594478 -743.5 6710372
-144.53193361621786 6.6215160183171555 -743.5 6578787
-144.53193361621786 7.7254248706895305 -743.5 6710373
-144.53193361621786 8.829333723061906 -743.5 6644837
-144.67280294722784 9.942924098412288 -743.25 6578787
-144.67280294722784 11.047908885338632 -743.25 6118749
-144.67280294722784 12.152893672264977 -743.25 5987164
-144.67280294722784 13.257878459191321 -743.25 6579558
-144.67280294722784 14.362863246117666 -743.25 6842985
-144.8136722782378 15.482909228791861 -743 6513507
-144.95454160924774 16.605107080573998 -742.75 6710884
-145.0954109402577 17.72945680146407 -742.5 6579298
-145.23628027126767 18.85595839146208 -742.25 6710884
-145.37714960227763 19.98461185056803 -742 6974056
-145.51801893328758 21.115417178781918 -741.75 7566195
-145.7997575953075 22.269891179175413 -741.25 7434609
-146.08149625732742 23.428668917784783 -740.75 7500402
-146.5041042503573 24.615419066789634 -740 7105644
-147.06758157439714 25.833369429851878 -739 6973545
-147.77192822944693 27.085747810633418 -737.75 6776166
-148.33540555348677 28.321989061113136 -736.75 6776166
-148.75801354651665 29.538865377629126 -736 7303023
-149.1806215395465 30.76219730146893 -735.25 7829367
-149.32149087055646 31.93173627362571 -735 7960953
-149.46236020156644 33.10342711489042 -734.75 8092539
-149.32149087055646 34.21271752804036 -735 8487297
-149.1806215395465 35.31985607208236 -735.25 8224126
-148.8988828775266 36.39041472929712 -735.75 7763576
-148.47627488449672 37.42116569602274 -736.5 7697782
-148.1945362224768 38.482040942251786 -737 8092539
-147.77192822944693 39.50095662888374 -737.75 8026746
-147.490189567427 40.552148464127065 -738.25 8355711
-147.2084509054071 41.599036561154506 -738.75 8553090
-147.06758157439714 42.68250454500918 -739 8421504
-146.7858429123772 43.72186110015884 -739.5 8947848
-146.64497358136725 44.799949411243674 -739.75 8882055
-146.64497358136725 45.91999728192558 -739.75 8882055
-146.5041042503573 46.99485778934851 -740 8816263
-146.5041042503573 48.11382972547645 -740 9079436
-146.5041042503573 49.2328016616044 -740 8881542
-146.64497358136725 50.40018876465324 -739.75 9078921
-146.7858429123772 51.569727736810016 -739.5 8881542
-147.06758157439714 52.79198561410357 -739 9078921
-147.2084509054071 53.96690425903019 -738.75 8881542
-147.490189567427 55.19669367820153 -738.25 9078921
-147.77192822944693 56.43078683558874 -737.75 9473679
-148.05366689146683 57.66918373119183 -737.25 9407886
-148.33540555348677 58.91188436501079 -736.75 9473679
-148.47627488449672 60.10186609369299 -736.5 9736851
-148.61714421550667 61.293999691483116 -736.25 10328216
-148.61714421550667 62.4291106459206 -736.25 10196886
-148.61714421550667 63.56422160035808 -736.25 9737105
-148.33540555348677 64.5766797916585 -736.75 9671312
-149.46236020156644 66.20885740596802 -734.75 9408140
-150.02583752560628 67.60433697043517 -733.75 9605519
-150.73018418065607 69.07297819656452 -732.5 9671312
-151.43453083570586 70.55237876823355 -731.25 9671569
-152.13887749075565 72.04253868544228 -730 10263707
-152.42061615277558 73.34011198151367 -729.5 10197914
-152.42061615277558 74.50427316890833 -729.5 9210761
-151.85713882873574 75.38869892430185 -730.5 9473420
-151.15279217368595 76.19350741070939 -731.75 9342347
-150.16670685661623 76.84338509736078 -733.5 9342347
-149.1806215395465 77.47819970025661 -735.25 9473935
-148.33540555348677 78.17218881561303 -736.75 8684419
-147.77192822944693 79.00389377786206 -737.75 7565682
-147.490189567427 79.97977019432754 -738.25 7499632
-147.34932023641704 81.02880827245521 -738.5 7894647
-147.34932023641704 82.15423581590696 -738.5 8552320
-147.77192822944693 85.77582586054406 -737.75 8750210
-147.91279756045688 86.98732628030564 -737.5 8815749
-147.91279756045688 88.11705756197328 -737.5 8749956
-148.1945362224768 89.41678272715261 -737 8881285
-148.61714421550667 91.94199546129512 -736.25 9406859
-148.75801354651665 93.16533116115035 -736 9077637
-148.75801354651665 94.30151805014181 -736 8945794
-148.75801354651665 95.43770493913325 -736 8748416
-148.61714421550667 98.75266118792001 -736.25 8749442
-148.05366689146683 101.77066516383441 -737.25 8551552
-144.109325623188 101.26072504946909 -744.25 9143689
-145.65888826429753 105.6870990364134 -741.5 8223098
-147.63105889843698 111.62838321132315 -738 8485758
-50.883512132489265 -48.564069262761556 -909 9999522
-51.02330200098511 -48.3047709232627 -908.75 10657709
-50.044772921514166 -46.99319348592026 -910.5 10855344
-50.46414252700171 -46.998578822713256 -909.75 11315896
-50.74372226399341 -46.86839451769842 -909.25 11578814
-51.163091869480965 -46.861944574397754 -908.5 11776704
-51.58246147496851 -46.84903902377327 -907.75 11776705
-51.86204121196021 -46.703791635002865 -907.25 11974083
-51.86204121196021 -46.3046199154803 -907.25 12039876
-52.14162094895191 -46.15291691938608 -906.75 12105412
-52.42120068594361 -45.99691018507598 -906.25 12171205
-52.70078042293531 -45.836599712550004 -905.75 12302791
-52.98036015992701 -45.67198550180816 -905.25 12368584
-53.399729765414556 -45.62249817634872 -904.5 12565707
-53.679309502406255 -45.44820055462115 -904 12565708
-53.958889239397955 -45.269599194677696 -903.5 12631756
-54.3782588448855 -45.20289691635476 -902.75 12697548
-54.6578385818772 -45.01461214542559 -902.25 12829134
-55.077208187364754 -44.93607458700899 -901.5 12894927
-55.4965777928523 -44.85108142126857 -900.75 12960720
-55.91594739833985 -44.75963264820434 -900 13092307
-55.91594739833985 -44.329258826616666 -900 13092564
-56.3353170038274 -44.228126642566714 -899.25 13092820
-57.034266346306644 -44.33788140711015 -898 13224150
-57.593425820290044 -44.32928148270927 -897 13224405
-58.15258529427344 -44.312074081876624 -896 13290197
-58.71174476825684 -44.28625920461223 -895 13355989
-59.41069411073609 -44.35620439065881 -893.75 13421782
-60.10964345321534 -44.415390231165695 -892.5 13487575
-60.80859279569459 -44.46381672613289 -891.25 13487062
-61.647332006669686 -44.602623611641214 -889.75 13684441
-62.34628134914893 -44.628455480975056 -888.5 13816284
-63.32481042861988 -44.84150373871497 -886.75 13881820
-64.16354963959498 -44.9415769802804 -885.25 13816540
-65.14207871906592 -45.12557500506315 -883.5 13816540
-66.12060779853687 -45.29450994609032 -881.75 13882333
-67.09913687800781 -45.44838180336193 -880 13882331
-67.93787608898292 -45.49358238267494 -878.5 13882331
-68.63682543146217 -45.43333948769124 -877.25 13882331
-69.33577477394141 -45.36233724716786 -876 13882331
-69.75514437942896 -45.09981488002253 -875.25 13882333
-70.17451398491652 -44.83083690555338 -874.5 13882333
-70.45409372190821 -44.467174802327236 -874 13882333
-70.73367345889991 -44.099208960885214 -873.5 13816540
-70.87346332739575 -43.64086272890206 -873.25 14013919
-71.15304306438746 -43.26536534558225 -872.75 14013919
-71.29283293288331 -42.80163944082925 -872.5 14079712
-71.43262280137915 -42.33576166696831 -872.25 14145505
-71.572412669875 -41.86773202399944 -872 14211298
-71.8519924068667 -41.47824749147803 -871.5 14342371
-71.99178227536255 -41.00483817573931 -871.25 14408164
-72.27136201235426 -40.60782210134011 -870.75 14408675
-72.6907316178418 -40.28397146461854 -870 14474468
-73.11010122332935 -39.95366522057315 -869.25 14474468
-73.94884043430444 -39.842855289560624 -867.75 14671847
-74.9273695137754 -39.79337551613206 -866 14606054
-76.0456884617422 -39.801998096625546 -864 14606054
-77.58337701519655 -40.00967423362648 -861.25 14671848
-79.12106556865089 -40.19367981044009 -858.5 14869226
-80.79854399060108 -40.42395246108209 -855.5 14869226
-82.47602241255127 -40.62840268242883 -852.5 14935017
-84.15350083450147 -40.807030474480314 -849.5 15001066
-85.69118938795582 -40.893126006882724 -846.75 15132652
-87.08908807291432 -40.88991708329798 -844.25 15198702
-88.34719688937696 -40.80063150738799 -842 15395824
-89.60530570583961 -40.691979109506555 -839.75 15395824
-90.86341452230225 -40.56395988965367 -837.5 15461874
-92.4011030757566 -40.53923416299725 -834.75 14080481
-94.0785814977068 -40.55109209918351 -831.75 11448503
-96.0356396566487 -40.65548418302655 -828.25 7369334
-98.27227755258228 -40.84595480720256 -824.25 4145220
-100.92828505400342 -41.1730747837558 -819.5 3026737
-103.72408242392042 -41.51525973207233 -814.5 3026478
-106.79945953082911 -41.92415639875038 -809 3355187
-110.01462650623365 -42.33951056075996 -803.25 3684151
-113.2297934816382 -42.70537173328696 -797.5 5986651
-116.30517058854689 -42.97009316973314 -792 6579300
-119.24075782695972 -43.13690267376041 -786.75 4802887
-121.89676532838087 -43.159533171540374 -782 3618613
-124.13340322431446 -42.996021327460525 -778 3487027
-125.95067151476051 -42.65605055250658 -774.75 3552820
-127.348570199719 -42.149304257664255 -772.25 3487027
-128.4668891476858 -41.530656993193716 -770.25 3749942
-129.3056283586609 -40.806564366418755 -768.75 4210239
-130.144367569636 -40.06956052499617 -767.25 4604997
-130.9831067806111 -39.31964546892595 -765.75 5394513
-131.8218459915862 -38.5568191982081 -764.25 4473668
-132.6605852025613 -37.78108171284263 -762.75 4802889
-133.63911428203224 -37.03116854478012 -761 4408131
-134.47785349300733 -36.22853269556542 -759.5 4408131
-135.1768028354866 -35.376401968860414 -758.25 4408131
-135.87575217796584 -34.51351189661572 -757 3947580
-136.57470152044507 -33.639862478831326 -755.75 4079166
-136.99407112593263 -32.688741997145726 -755 4342338
-137.27365086292434 -31.698885983509513 -754.5 4605510
-137.55323059991602 -30.704726231657432 -754 4605510
-137.55323059991602 -29.64600663055176 -754 4539717
-137.55323059991602 -28.58728702944609 -754 4802889
-137.55323059991602 -27.52856742834042 -754 5263440
-137.55323059991602 -26.46984782723475 -754 5724504
-137.69302046841187 -25.43695254343206 -753.75 5724504
-137.97260020540358 -24.426653773270434 -753.25 5395539
-138.39196981089114 -23.435723713087974 -752.5 5000781
-138.95112928487453 -22.460934559222764 -751.5 5329746
-139.5102887588579 -21.477537928925802 -750.5 5461077
-140.06944823284132 -20.485533822197088 -749.5 5197648
-140.6286077068247 -19.484922239036617 -748.5 5329234
-140.90818744381642 -18.439117628594012 -748 5460819
-141.32755704930398 -17.406226120806753 -747.25 5395026
-141.46734691779983 -16.334597193061168 -747 5592405
-141.7469266547915 -15.275881367970932 -746.5 5592404
-141.88671652328736 -14.198872767455502 -746.25 5197645
-142.02650639178322 -13.119712297832134 -746 5592403
-142.02650639178322 -12.026562790999451 -746 5855577
-142.16629626027907 -10.944174517714176 -745.75 6316128
-142.16629626027907 -9.849949076327523 -745.75 6316128
-142.02650639178322 -8.7471142705014 -746 6184542
-142.02650639178322 -7.653964763668717 -746 6645352
-141.88671652328736 -6.554357761504502 -746.25 7631990
-141.88671652328736 -5.462284189225787 -746.25 7171439
-141.88671652328736 -4.370210616947073 -746.25 6513507
-142.02650639178322 -3.281366736337982 -746 5526612
-142.30608612877492 -2.192524743736608 -745.5 5855577
-142.58566586576663 -1.0993790129193577 -745 6250335
-142.8652456027583 -0.0019295438862304282 -744.5 6842472
-143.14482533975 1.0998236633627736 -744 6645093
-143.42440507674172 2.205880608827654 -743.5 6381921
-143.56419494523757 3.3130153768542203 -743.25 6710886
-143.7039848137334 4.422302013988725 -743 6579300
-143.7039848137334 5.528362735469039 -743 6710373
-143.56419494523757 6.627969737633254 -743.25 6249822
-143.42440507674172 7.7254248706895305 -743.5 6381408
-143.28461520824587 8.82072813463787 -743.75 6513250
-143.00503547125416 9.904198006500263 -744.25 6250079
-142.72545573426245 10.98336414014678 -744.75 6118749
-142.58566586576663 12.070059927663365 -745 6250336
-142.44587599727078 13.154603846072012 -745.25 6842474
-142.44587599727078 14.250981156566603 -745.25 7369329
-142.58566586576663 15.362419662809046 -745 6908265
-143.00503547125416 16.50828429876307 -744.25 6842471
-143.42440507674172 17.660604542040907 -743.5 6908263
-143.7039848137334 18.801091393232802 -743 6776677
-144.12335441922096 19.965246916604304 -742.25 6908265
-144.54272402470852 21.135858047299617 -741.5 7171437
-144.96209363019605 22.312924785318746 -740.75 7237230
-145.3814632356836 23.496447130661693 -740 7434609
-145.940622709667 24.71009375550806 -739 6974058
-146.4997821836504 25.932347856786176 -738 6710373
-147.19873152612965 27.189029975783594 -736.75 6381408
-147.6181011316172 28.402678488637676 -736 6381408
-148.1772606056006 29.650755019211054 -735 6645093
-148.4568403425923 30.84934233631728 -734.5 7237230
-148.59663021108815 32.02210911213597 -734.25 7895160
-148.736420079584 33.19702775706259 -734 7960953
-148.59663021108815 34.309545973874435 -734.25 8224125
-148.59663021108815 35.45326440474367 -734.25 8289918
-148.4568403425923 36.562554817893606 -734.5 7895161
-148.1772606056006 37.63418940966234 -735 7763575
-148.03747073710474 38.738100150042435 -735.25 8092283
-147.75789100011306 39.80220319993338 -735.75 8158075
-147.6181011316172 40.900734267543626 -736 8092539
-147.47831126312136 41.99711346604593 -736.25 8355711
-147.3385213946255 43.0913407954403 -736.5 8618883
-147.19873152612965 44.18341625572673 -736.75 8750469
-147.19873152612965 45.31637534105628 -736.75 8947848
-147.0589416576338 46.4052229976808 -737 9145228
-146.91915178913794 47.491918785197385 -737.25 8947850
-146.91915178913794 48.62272600141899 -737.25 9013643
-146.77936192064212 49.70619398527367 -737.5 8947335
-146.77936192064212 50.8359252669413 -737.5 9276300
-146.77936192064212 51.96565654860894 -737.5 9144970
-147.0589416576338 53.19652190233425 -737 9079177
-147.19873152612965 54.38004802369262 -736.75 8684420
-147.47831126312136 55.61844491929571 -736.25 9144714
-147.75789100011306 56.861145553114675 -735.75 9276300
-147.8976808686089 58.05327915090481 -735.5 9407886
-148.03747073710474 59.24756461780288 -735.25 9473679
-148.03747073710474 60.38697931045624 -735.25 10065816
-148.03747073710474 61.526394003109594 -735.25 11052197
-147.8976808686089 62.60663418330236 -735.5 10525853
-147.8976808686089 63.744972941401755 -735.5 9867923
-148.03747073710474 64.94463808106967 -735.25 9671058
-148.31705047409645 66.20885740596802 -734.75 9407886
-152.23116679198023 69.12781498667033 -727.75 9605522
-154.0484350824263 71.1387121239384 -724.5 9737364
-156.00549324136819 73.24321367939409 -721 9868950
-157.40339192632666 75.11101718500741 -718.5 10132122
-157.68297166331837 77.67173764743862 -718 9408141
-156.56465271535157 78.32592096031361 -720 9473933
-154.74738442490553 78.60784035755385 -723.25 9605519
-152.79032626596364 78.78969972928267 -726.75 9342604
-150.83326810702175 78.94143293350037 -730.25 9605776
-149.15578968507154 79.21151516263922 -733.25 9211019
-147.8976808686089 79.6817155547932 -735.5 8421503
-147.19873152612965 80.43810698627212 -736.75 7368303
-146.91915178913794 81.41613527184553 -737.25 7105131
-146.77936192064212 82.4684011536351 -737.5 7960183
-146.91915178913794 85.93936413673195 -737.25 8816003
-146.91915178913794 87.07017135295355 -737.25 8815749
-146.77936192064212 88.11705756197328 -737.5 8749699
-146.63957205214626 89.16179190188507 -737.75 8815235
-146.4997821836504 90.20437437268892 -738 9078407
-146.4997821836504 91.33195378524861 -738 9472652
-146.35999231515456 92.37130845239055 -738.25 9208710
-146.2202024466587 93.40851125042455 -738.5 9011075
-146.2202024466587 94.53393879387632 -738.5 9010818
-146.08041257816285 95.5679137882484 -738.75 8749442
-145.66104297267532 96.4146799462453 -739.5 8749699
-145.24167336718776 97.25499049691838 -740.25 9275786
-144.12335441922096 98.724732201702 -742.25 8946310
-143.56419494523757 99.44669183944619 -743.25 8551552
-143.14482533975 100.2579521571621 -744 8814724
-143.00503547125416 101.26072504946909 -744.25 9275275
-143.7039848137334 103.96776694721694 -743 8814981
-50.490587777353475 -48.564069262761556 -909 9933729
-50.629298183335216 -48.3047709232627 -908.75 10723757
-50.629298183335216 -47.91205481106395 -908.75 10986930
-50.768008589316956 -47.64952866790319 -908.5 11447482
-50.9067189952987 -47.38485065563449 -908.25 11710400
-51.04542940128044 -47.11802077425785 -908 11842497
-51.32285021324392 -46.97600118914935 -907.5 11842497
-51.32285021324392 -46.577905404180754 -907.5 11908291
-51.46156061922566 -46.3046199154803 -907.25 11974085
-51.73898143118914 -46.15291691938608 -906.75 12236742
-52.01640224315262 -45.99691018507598 -906.25 12302791
-52.2938230551161 -45.836599712550004 -905.75 12368584
-52.57124386707958 -45.67198550180816 -905.25 12434377
-52.9873750850248 -45.62249817634872 -904.5 12500426
-53.264795896988275 -45.44820055462115 -904 12565963
-53.542216708951756 -45.269599194677696 -903.5 12631756
-53.95834792689698 -45.20289691635476 -902.75 12763598
