VERSION 0.7 
FIELDS x y z rgb 
SIZE 4 4 4 4 
TYPE F F F U 
COUNT 1 1 1 1 
WIDTH 892 
HEIGHT 1 
VIEWPOINT 0 0 0 1 0 0 0 
POINTS 892 
DATA ascii 
-16.42383345706567 -44.2969014936735 -910.5 5725276
-16.46971008683401 -44.03437535051274 -910.25 7304052
-16.56146334637069 -43.89127983085027 -909.75 8948879
-16.653216605907367 -43.743880572971925 -909.25 10790827
-16.79084649521239 -43.711608200376 -908.5 10330277
-16.88259975474907 -43.554525531511935 -908 11382965
-17.020229644054087 -43.510417878822345 -907.25 11646393
-17.111982903590768 -43.34365179897256 -906.75 11711930
-17.157859533359108 -43.057455095624476 -906.5 11843516
-17.20373616312745 -42.76910652316845 -906.25 11844031
-17.249612792895785 -42.47860608160449 -906 11909824
-17.249612792895785 -42.07405468931208 -906 11975104
-17.249612792895785 -41.669503297019666 -906 12040897
-17.20373616312745 -41.15520469221469 -906.25 12040897
-17.20373616312745 -40.751729234476244 -906.25 12106690
-17.249612792895785 -40.45584912014244 -906 12172481
-17.249612792895785 -40.05129772785003 -906 12238274
-17.249612792895785 -39.646746335557616 -906 12172994
-17.295489422664126 -39.34656248300793 -905.75 12238788
-17.341366052432466 -39.04422676135031 -905.5 12304581
-17.341366052432466 -38.637523499949964 -905.5 12238788
-17.387242682200807 -38.33195997463043 -905.25 12370373
-17.387242682200807 -37.92418077867612 -905.25 12436166
-17.387242682200807 -37.5164015827218 -905.25 12370373
-17.387242682200807 -37.10862238676748 -905.25 12435908
-17.387242682200807 -36.70084319081316 -905.25 12370372
-17.387242682200807 -36.29306399485884 -905.25 12501958
-17.387242682200807 -35.88528479890452 -905.25 12501958
-17.433119311969147 -35.57111379715324 -905 12371142
-17.433119311969147 -35.16225866664495 -905 12502471
-17.433119311969147 -34.753403536136666 -905 12567751
-17.433119311969147 -34.34454840562838 -905 12567751
-17.433119311969147 -33.935693275120094 -905 12567751
-17.433119311969147 -33.52683814461181 -905 12698825
-17.433119311969147 -33.117983014103515 -905 12699337
-17.433119311969147 -32.70912788359523 -905 12633544
-17.478995941737487 -32.38527347085822 -904.75 12699594
-17.478995941737487 -31.97534240579597 -904.75 12634314
-17.524872571505828 -31.648260189397057 -904.5 12765900
-17.524872571505828 -31.23725318978083 -904.5 12765900
-17.570749201274165 -30.90694316972001 -904.25 13094865
-17.616625831042505 -30.57448128055125 -904 13226451
-17.662502460810845 -30.23986752227455 -903.75 13358550
-17.662502460810845 -29.82563271899642 -903.75 13555929
-17.662502460810845 -29.411397915718286 -903.75 13687515
-17.708379090579186 -29.072480419225712 -903.5 13753308
-17.708379090579186 -28.65716968139361 -903.5 13819101
-17.708379090579186 -28.241858943561507 -903.5 13884894
-17.708379090579186 -27.826548205729406 -903.5 13950687
-17.708379090579186 -27.411237467897305 -903.5 13884894
-17.754255720347526 -27.065864364080916 -903.25 14016480
-17.846008979884203 -26.787201090618332 -902.75 13885407
-17.983638869189225 -26.572019843847645 -902 13885918
-18.213022018030923 -26.483802650460756 -900.75 14148064
-18.534158426409302 -26.516093903133847 -899 14279393
-19.08467798362938 -26.856111878280704 -896 14345445
-19.77282743015448 -27.360753504207995 -892.25 14280422
-20.690360025521276 -28.14514755420585 -887.25 14149607
-21.883152399498112 -29.254485167548697 -880.75 13228248
-23.30532792231665 -30.609145299235102 -873 5266526
-24.956886593976883 -32.19298893095552 -864 3621184
-26.791951784710477 -33.93177469047837 -854 3487799
-28.718770234980752 -35.69853852441985 -843.5 3488056
-30.737341944787705 -37.48682482545615 -832.5 3093553
-32.71003702482632 -39.12555433548301 -821.75 3422776
-34.636855475096596 -40.61795485816235 -811.25 5987933
-36.334290776525165 -41.75636347254725 -802 7238000
-37.84821955888038 -42.60856594354548 -793.75 4475979
-39.17864182216224 -43.187473485804674 -786.5 7700864
-40.23380430683406 -43.407007558991864 -780.75 9872034
-41.15133690220085 -43.431791813887486 -775.75 4937302
-41.93123960826263 -43.27150966147726 -771.5 2238502
-42.57351242501939 -42.935844512746904 -768 3290674
-43.124031982239465 -42.479670917956575 -765 5856343
-43.628674909691206 -41.953559689150524 -762.25 5462097
-44.041564577606266 -41.31769935982419 -760 5330511
-44.454454245521326 -40.66247220852641 -757.75 5133132
-44.775590653899705 -39.906103433140096 -756 4935753
-45.096727062278084 -39.13467157399821 -754.25 4935753
-45.37198684088812 -38.30944109915015 -752.75 5066822
-45.60136998972982 -37.43363981225782 -751.5 5001287
-45.83075313857152 -36.54707917982581 -750.25 5198411
-45.96838302787654 -35.5787437452767 -749.5 5132876
-46.151889546949896 -34.6383844971385 -748.5 5001547
-46.24364280648658 -33.62270605420703 -748 5527892
-46.33539606602326 -32.60272387305968 -747.5 5462100
-46.42714932555994 -31.578437953696465 -747 5067342
-46.51890258509662 -30.549848296117364 -746.5 6448995
-46.564779214864956 -29.4879027793575 -746.25 8488577
-46.65653247440164 -28.45178157990062 -745.75 7174511
-46.74828573393832 -27.411356642227858 -745.25 9608852
-46.840038993475 -26.36662796633922 -744.75 9477266
-46.93179225301168 -25.317595552234707 -744.25 6647910
-47.02354551254835 -24.264259399914316 -743.75 5989724
-47.0694221423167 -23.184022995736978 -743.5 6647654
-47.11529877208503 -22.101634722451703 -743.25 5396817
-47.16117540185338 -21.01709458005849 -743 5265231
-47.207052031621714 -19.930402568557337 -742.75 5067852
-47.25292866139006 -18.841558687948247 -742.5 5659990
-47.34468192092673 -17.76777977910244 -742 5791576
-47.43643518046341 -16.68969713204076 -741.5 5923162
-47.52818844000009 -15.6073107467632 -741 5593941
-47.66581832930511 -14.53460966047908 -740.25 5791576
-47.84932484837847 -13.468366069526493 -739.25 5792089
-48.032831367451834 -12.39351500214215 -738.25 6318690
-48.21633788652519 -11.310056458326056 -737.25 6121310
-48.35396777583021 -10.208305139084768 -736.5 5660760
-48.445721035366894 -9.091488848080195 -736 5858396
-48.445721035366894 -7.955301959088745 -736 5595224
-48.39984440559855 -6.812657574765763 -736.25 5463894
-48.30809114606187 -5.666783498773157 -736.75 4476998
-48.21633788652519 -4.525213160996427 -737.25 5858396
-48.124584626988515 -3.387946561435574 -737.75 6187361
-48.07870799722017 -2.2571374572062526 -738 6713449
-48.07870799722017 -1.1295580446465558 -738 6252897
-48.124584626988515 -0.0019805200945750678 -737.75 6318690
-48.30809114606187 1.1309710132041022 -736.75 6516070
-48.445721035366894 2.2703800418343105 -736 6252896
-48.53747429490357 3.4130187621341435 -735.5 6581861
-48.62922755444025 4.5599612206498525 -735 6976620
-48.67510418420859 5.705829632619309 -734.75 5200466
-48.62922755444025 6.840942475064508 -735 6187104
-48.58335092467191 7.973903448401767 -735.25 6581862
-48.53747429490357 9.104712552631089 -735.5 7042413
-48.445721035366894 10.223688264774465 -736 6581862
-48.39984440559855 11.34911769623394 -736.25 6911339
-48.445721035366894 13.632248931748817 -736 7635576
-48.53747429490357 14.796406343128034 -735.5 7702138
-48.62922755444025 15.964867492723126 -735 8557191
-48.72098081397693 17.137632380534097 -734.5 7832956
-48.76685744374527 18.29748794170515 -734.25 7700600
-48.81273407351361 19.459495371984147 -734 7700600
-48.85861070328195 20.623654671371078 -733.75 8555395
-48.90448733305029 21.78996583986595 -733.5 8160123
-48.90448733305029 22.936912074397092 -733.5 7173998
-48.95036396281863 24.10645104655387 -733.25 7832187
-48.99624059258697 25.278141887818588 -733 8424326
-49.08799385212365 26.47672920492482 -732.5 8227204
-49.13387048189199 27.65379971895938 -732.25 8227459
-49.22562374142867 28.859918577943393 -731.75 8622217
-49.31737700096535 30.070341175143284 -731.25 9148561
-49.36325363073369 31.2560191656096 -731 10003870
-49.40913026050203 32.44384902518386 -730.75 9872284
-49.45500689027037 33.63383075386605 -730.5 9148818
-49.45500689027037 34.793688203044816 -730.5 9213842
-49.40913026050203 35.92019356905826 -730.75 9345428
-49.40913026050203 37.07897508368307 -730.75 9345430
-49.36325363073369 38.2022526460346 -731 10397604
-49.31737700096535 39.3233783392782 -731.25 9542805
-49.27150037119701 40.44235216341386 -731.5 9543060
-49.22562374142867 41.55917411844158 -731.75 9937819
-49.179747111660326 42.673844204361366 -732 9739926
-49.08799385212365 43.7454787961301 -732.5 9871769
-49.04211722235531 44.854769209280036 -732.75 11122094
-48.99624059258697 45.96190775332204 -733 10266272
-48.99624059258697 47.111005856961114 -733 10068894
-48.95036396281863 48.21491659734121 -733.25 10463395
-48.99624059258697 49.40920206423928 -733 10529188
-48.99624059258697 50.55830016787836 -733 10463654
-49.04211722235531 51.75581343843834 -732.75 10134434
-49.08799385212365 52.95547857810625 -732.5 10200226
-49.08799385212365 54.10672855085327 -732.5 10660776
-49.13387048189199 55.3096214941831 -732.25 10726568
-49.179747111660326 56.51466630662085 -732 10660518
-49.22562374142867 57.721862988166556 -731.75 10529189
-49.27150037119701 58.93121153882019 -731.5 10463395
-49.36325363073369 61.35636424745128 -731 10397602
-49.40913026050203 62.57216840542874 -730.75 10725798
-49.45500689027037 63.79012443251413 -730.5 11185581
-49.45500689027037 64.9499818816929 -730.5 11317423
-49.500883520038705 66.1711657124402 -730.25 10856872
-49.500883520038705 67.33209909617294 -730.25 10857129
-49.54676014980705 68.55651073058215 -730 10791592
-49.54676014980705 69.71852004886885 -730 10594213
-49.54676014980705 70.88052936715557 -730 10462627
-49.592636779575386 72.10924473978065 -729.75 11515313
-49.592636779575386 73.27232999262134 -729.75 11252141
-49.592636779575386 74.43541524546201 -729.75 10528417
-49.592636779575386 75.5985004983027 -729.75 10133401
-49.63851340934373 76.83259554369762 -729.5 10330780
-49.63851340934373 77.99675673109228 -729.5 9475471
-49.68439003911207 79.23407958014911 -729.25 9343886
-49.730266668880404 80.47355429831389 -729 10857126
-49.77614329864875 81.7151808855866 -728.75 10922919
-49.86789655818543 83.03534880729134 -728.25 11120042
-49.95964981772211 84.35982046721197 -727.75 11054251
-50.05140307725878 85.68859586534847 -727.25 11317679
-50.18903296656381 87.10129227068686 -726.5 11317681
-50.28078622610049 88.43975107980907 -726 10988971
-50.326662855868825 89.70074448905324 -725.75 10923178
-50.418416115405506 91.04673484005323 -725.25 11186349
-50.418416115405506 92.22918691486537 -725.25 10988969
-50.46429274517384 93.49663593143333 -725 10791590
-50.46429274517384 94.68016394079943 -725 10594211
-50.46429274517384 95.86369195016553 -725 10199709
-50.418416115405506 96.95899521411387 -725.25 10594211
-50.418416115405506 98.14144728892599 -725.25 10923176
-50.37253948563716 99.23352274921243 -725.5 10857126
-50.326662855868825 100.32344634039092 -725.75 10922919
-50.28078622610049 101.41121806246147 -726 10593184
-50.234909596332145 102.49683791542408 -726.25 10461598
-50.234909596332145 103.67498625202033 -726.25 10395805
-50.234909596332145 104.85313458861658 -726.25 10395805
-50.234909596332145 106.03128292521282 -726.25 10264989
-50.18903296656381 107.1115231054056 -726.5 10462368
-50.143156336795464 108.18961141649042 -726.75 10330525
-50.05140307725878 109.1654878329559 -727.25 10396576
-49.95964981772211 110.1370605112055 -727.75 10264731
-49.86789655818543 111.10432945123922 -728.25 10395805
-49.77614329864875 113.23468364411363 -728.75 10592672
-49.77614329864875 114.40207263517019 -728.75 10527391
-49.77614329864875 115.56946162622674 -728.75 10922149
-49.822019928417085 116.8444421846725 -728.5 10461598
-49.86789655818543 118.1215746122262 -728.25 10593184
-50.005526447490446 120.79311444570851 -727.5 10198428
-50.09727970702713 123.36459425367941 -727 10132633
-50.326662855868825 127.4703510715872 -725.75 10198168
-50.831305783320566 132.32494701101126 -723 9671826
-51.88646826799238 139.93929242527363 -717.25 10461087
-16.84373488759069 -49.355979750575464 -906 2960685
-16.574951884065303 -48.17028854405513 -907.5 3026735
-16.30616888053992 -46.99750855218243 -909 3092784
-16.126980211522998 -46.09371597481746 -910 3224370
-15.992588709760307 -45.325493039260316 -910.75 3487542
-15.902994375251845 -44.6896119418491 -911.25 3618872
-15.858197207997616 -44.182844878921905 -911.5 3553335
-15.858197207997616 -43.80196404681681 -911.5 3619386
-15.947791542506076 -43.66640006903213 -911 3751230
-15.992588709760307 -43.40494986042534 -910.75 4211781
-16.082183044268767 -43.26185434076287 -910.25 4080195
-16.17177737877723 -43.114455082884525 -909.75 5198678
-16.26137171328569 -42.9627520867903 -909.25 6777711
-16.395763215048383 -42.92402410687056 -908.5 8685707
-16.530154716811072 -42.878840519627005 -907.75 10856876
-16.664546218573765 -42.82720132505964 -907 11580344
-16.798937720336458 -42.76910652316845 -906.25 11843516
-16.93332922209915 -42.70455611395345 -905.5 11909566
-16.978126389353378 -42.40975193417361 -905.25 11843517
-17.02292355660761 -42.112795885285834 -905 11975104
-17.02292355660761 -41.70394075477755 -905 12106690
-17.02292355660761 -41.29508562426926 -905 12106688
-16.978126389353378 -40.77863515035634 -905.25 12172481
-16.93332922209915 -40.26433654555136 -905.5 12238274
-16.88853205484492 -39.752189809854315 -905.75 12172994
-16.88853205484492 -39.34656248300793 -905.75 12304580
-16.88853205484492 -38.94093515616155 -905.75 12238787
-16.93332922209915 -38.637523499949964 -905.5 12304580
-16.978126389353378 -38.33195997463043 -905.25 12370373
-16.978126389353378 -37.92418077867612 -905.25 12436166
-17.02292355660761 -37.615389449694675 -905 12304579
-17.02292355660761 -37.20653431918639 -905 12435908
-17.06772072386184 -36.894515186543046 -904.75 12370372
-17.06772072386184 -36.484584121480786 -904.75 12370372
-17.06772072386184 -36.07465305641853 -904.75 12501958
-17.06772072386184 -35.664721991356274 -904.75 12436422
-17.06772072386184 -35.25479092629402 -904.75 12568008
-17.06772072386184 -34.84485986123176 -904.75 12633544
-17.06772072386184 -34.43492879616951 -904.75 12633544
-17.06772072386184 -34.02499773110725 -904.75 12699336
-17.06772072386184 -33.615066666044996 -904.75 12699082
-17.06772072386184 -33.205135600982736 -904.75 12699337
-17.06772072386184 -32.79520453592048 -904.75 12633801
-17.06772072386184 -32.38527347085822 -904.75 12634057
-17.11251789111607 -32.05926718901328 -904.5 12502985
-17.11251789111607 -31.648260189397057 -904.5 12700363
-17.1573150583703 -31.319026103890206 -904.25 12765900
-17.202112225624532 -30.987640149275414 -904 13029072
-17.246909392878763 -30.654102325552685 -903.75 13160658
-17.246909392878763 -30.23986752227455 -903.75 13358550
-17.291706560132994 -29.903101894889918 -903.5 13424343
-17.291706560132994 -29.487791157057814 -903.5 13555929
-17.336503727387225 -29.147797726011273 -903.25 13621723
-17.336503727387225 -28.7314110536252 -903.25 13884894
-17.336503727387225 -28.31502438123913 -903.25 13884894
-17.336503727387225 -27.89863770885306 -903.25 13884894
-17.336503727387225 -27.482251036466987 -903.25 13884894
-17.381300894641456 -27.13580199809663 -903 14016480
-17.470895229149914 -26.856062790080074 -902.5 13950687
-17.605286730912606 -26.63980560875542 -901.75 13951198
-17.82927256718376 -26.55051248081456 -900.5 14213857
-18.187649905217604 -26.64736169473352 -898.5 14476005
-18.72521591226837 -26.985227800772435 -895.5 14476518
-19.44197058833606 -27.551199584283687 -891.5 14412008
-20.42750826792913 -28.457178014895494 -886 14215400
-21.637031783793358 -29.622466113052457 -879.25 12635855
-23.070541135928735 -31.030924860445037 -871.25 4739668
-24.728036324335264 -32.66641523876369 -862 3554365
-26.564720181758716 -34.45469587577684 -851.75 3421749
-28.49099837369063 -36.26880271810068 -841 3553591
-30.462073732876775 -38.046329673597285 -830 2764589
-32.38835192480869 -39.67429983808446 -819.25 3290933
-34.22503578223214 -41.10214239951793 -809 5066576
-35.83773380338444 -42.1781449217649 -800 5790813
-37.27124315551982 -42.97009316973314 -792 6252649
-38.435969504129815 -43.38975673398175 -785.5 7043450
-39.42150718372289 -43.55549219146276 -780 9477790
-40.22785619429904 -43.480210756823816 -775.5 5858403
-40.89981370311249 -43.2241666530949 -771.75 1449758
-41.482176877417494 -42.843310365090126 -768.5 3159345
-41.97494571721403 -42.34409750013331 -765.75 5921879
-42.422917389756336 -41.777098870268716 -763.25 5396304
-42.82609189504441 -41.145542279158256 -761 5527890
-43.184469233078254 -40.452655530463836 -759 6185820
-43.49804940385786 -39.70166642784737 -757.25 5462097
-43.81162957463748 -38.93561424147533 -755.5 5461840
-44.03561541090863 -38.07702790744651 -754.25 5264203
-44.25960124717979 -37.207682227877996 -753 5724755
-44.43878991619671 -36.29099353992712 -752 5922648
-44.5731814179594 -35.3301896472558 -751.25 5264719
-44.75237008697632 -34.39736194099539 -750.25 5133133
-44.88676158873901 -33.42257089912246 -749.5 6383200
-45.021153090501706 -32.44132424992573 -748.75 5462098
-45.1555445922644 -31.453621993405175 -748 5001547
-45.28993609402709 -30.459464129560804 -747.25 5659477
-45.37953042853555 -29.429798537427736 -746.75 6515555
-45.51392193029824 -28.423805393489705 -746 5398101
-45.64831343206093 -27.411356642227858 -745.25 6714217
-45.73790776656939 -26.36662796633922 -744.75 7042925
-45.827502101077854 -25.317595552234707 -744.25 5858650
-45.917096435586316 -24.264259399914316 -743.75 5266000
-45.96189360284055 -23.184022995736978 -743.5 5529173
-46.00669077009478 -22.101634722451703 -743.25 5659989
-45.96189360284055 -20.976205290992226 -743.5 5857368
-45.96189360284055 -19.872296438619852 -743.5 5396561
-45.872299268332085 -18.73180203539709 -744 5396817
-45.827502101077854 -17.61282821126143 -744.25 5725783
-45.827502101077854 -16.512147162550963 -744.25 5857882
-45.872299268332085 -15.42653108560378 -744 6252383
-46.00669077009478 -14.366741213967291 -743.25 5726553
-46.1858794391117 -13.313408837662333 -742.25 5397588
-46.45466244263708 -12.275143321128377 -740.75 6253154
-46.723445446162465 -11.223966589946789 -739.25 6516326
-46.99222844968785 -10.159878644117573 -737.75 5595224
-47.171417118704774 -9.065660754761785 -736.75 5661273
-47.261011453213236 -7.947768529203244 -736.25 5661273
-47.30580862046746 -6.819115070097294 -736 5595736
-47.261011453213236 -5.677546620328282 -736.25 5595479
-47.216214285959005 -4.538130039667206 -736.5 5003086
-47.12661995145054 -3.3976356364444458 -737 5726810
-47.08182278419631 -2.2635987285532173 -737.25 6187104
-47.03702561694208 -1.1317136897699271 -737.5 6252897
-47.03702561694208 -0.0019824081022915357 -737.5 6187104
-47.08182278419631 1.1288229201115967 -737.25 6647655
-47.171417118704774 2.263930098533645 -736.75 6318689
-47.216214285959005 3.4001150995173792 -736.5 6450276
-47.261011453213236 4.538451969609052 -736.25 6252897
-47.35060578772169 5.6843184935707916 -735.75 6516069
-47.39540295497592 6.82803503643231 -735.5 6383969
-47.39540295497592 7.966373794531699 -735.5 6778727
-47.44020012223015 9.113318141055124 -735.25 7502451
-47.48499728948438 10.26241435668649 -735 7108206
-47.574591623992845 11.424419898957767 -734.5 7240049
-47.619388791247076 12.578895787358977 -734.25 7371890
-47.70898312575554 13.74843287150804 -733.75 7503733
-47.798577460264 14.922273693872977 -733.25 7438453
-47.84337462751823 16.08535705870594 -733 8557191
-47.88817179477246 17.250592292646843 -732.75 8359556
-47.88817179477246 18.400766330839893 -732.75 7503479
-47.84337462751823 19.532651369623185 -733 7766393
-47.84337462751823 20.681749473262265 -733 9805462
-47.84337462751823 21.830847576901345 -733 8752517
-47.798577460264 22.95842887746876 -733.25 7437171
-47.84337462751823 24.12904378417951 -733 7700601
-47.84337462751823 25.278141887818588 -733 8687498
-47.88817179477246 26.451984598191242 -732.75 8292740
-47.97776612928092 27.65379971895938 -732.25 8358789
-48.067360463789385 28.859918577943393 -731.75 8490630
-48.156954798297846 30.070341175143284 -731.25 8359045
-48.24654913280631 31.285067510559053 -730.75 9148560
-48.33614346731476 32.504097584190696 -730.25 9214354
-48.380940634568994 33.69623118198083 -730 9148561
-48.380940634568994 34.858240500267534 -730 9148305
-48.380940634568994 36.02024981855425 -730 9477015
-48.380940634568994 37.182259136840955 -730 9411222
-48.380940634568994 38.34426845512767 -730 9608600
-48.380940634568994 39.50627777341438 -730 9279632
-48.380940634568994 40.66828709170109 -730 9477011
-48.33614346731476 41.79156465405263 -730.25 9542804
-48.33614346731476 42.95249803778537 -730.25 9411218
-48.29134630006053 44.072547796475 -730.5 9542804
-48.24654913280631 45.19044568605669 -730.75 9608598
-48.20175196555208 46.30619170653044 -731 9937820
-48.20175196555208 47.463897286601274 -731 10529188
-48.20175196555208 48.62160286667211 -731 9805465
-48.24654913280631 49.8255717445559 -730.75 10266272
-48.29134630006053 51.03169249154763 -730.5 10332324
-48.33614346731476 52.2399651076473 -730.25 10332324
-48.33614346731476 53.40089849138004 -730.25 10398373
-48.380940634568994 54.61239891114162 -730 10332324
-48.380940634568994 55.77440822942833 -730 10857898
-48.33614346731476 56.88369864257827 -730.25 10463397
-48.29134630006053 57.99083718662027 -730.5 10397603
-48.24654913280631 59.09582386155433 -730.75 10594726
-48.20175196555208 60.19865866738045 -731 10396834
-48.20175196555208 61.35636424745128 -731 10594213
-48.156954798297846 62.4559712496155 -731.25 11383216
-48.20175196555208 63.67177540759295 -731 11449264
-48.24654913280631 64.88973143467834 -730.75 10988969
-48.29134630006053 66.10983933087168 -730.5 10923176
-48.380940634568994 67.39450141229544 -730 10989739
-48.470534969077455 68.68346723193508 -729.5 10726568
-48.56012930358592 69.97673678979059 -729 10792360
-48.60492647084015 71.20867996607758 -728.75 10266016
-48.60492647084015 72.37606895713415 -728.75 11187118
-48.60492647084015 73.5434579481907 -728.75 10397856
-48.515332136331686 74.57313109235464 -729.25 10133914
-48.425737801823225 75.5985004983027 -729.75 9475984
-48.29134630006053 76.54855637348062 -730.5 9607569
-48.20175196555208 77.56424236844296 -731 9475983
-48.156954798297846 78.6487862868516 -731.25 9936278
-48.112157631043615 79.73117833615231 -731.5 10791844
-48.112157631043615 80.88673204711522 -731.5 10988967
-48.156954798297846 82.1186752234022 -731.25 10791590
-48.24654913280631 83.4302356686752 -730.75 11317678
-48.29134630006053 84.66755851773203 -730.5 12107452
-48.380940634568994 85.98665050488282 -730 11712694
-48.470534969077455 87.31004623024947 -729.5 10857385
-48.56012930358592 88.637745693832 -729 11251885
-48.64972363809438 89.9697488956304 -728.5 11646642
-48.73931797260284 91.30605583564468 -728 11910071
-48.8289123071113 92.64666651387485 -727.5 10923176
-48.918506641619764 93.9915809303209 -727 10660772
-49.008100976128226 95.3407990849828 -726.5 10463649
-49.05289814338246 96.60609623244284 -726.25 10397599
-49.09769531063669 97.87354524901082 -726 10331806
-49.09769531063669 99.05276952016104 -726 10331807
-49.05289814338246 100.14054124223158 -726.25 10331293
-49.008100976128226 101.2261610951942 -726.5 10527391
-49.008100976128226 102.40323349723649 -726.5 10593184
-48.963303808873995 103.4856255465372 -726.75 10395805
-48.918506641619764 104.56586572672995 -727 10461342
-48.87370947436553 105.6439540378148 -727.25 10592671
-48.78411513985707 106.62198232338821 -727.75 10658464
-48.73931797260284 107.69469096170319 -728 10592673
-48.64972363809438 108.66518770539882 -728.5 10330014
-48.60492647084015 109.73251667094397 -728.75 10395807
-48.56012930358592 110.79769376738116 -729 10395807
-48.470534969077455 115.24991472772105 -729.5 10462111
-48.470534969077455 116.4140759151157 -729.5 10330782
-48.470534969077455 117.57823710251034 -729.5 10199196
-48.56012930358592 120.12819821940187 -729 10528161
-48.60492647084015 121.40640658150953 -728.75 10329754
-48.64972363809438 126.1921615895567 -728.5 10527132
-48.470534969077455 128.05568778906218 -729.5 9671569
-48.29134630006053 128.74214158652538 -730.5 9605777
-16.700163210726316 -50.1435751721272 -904.5 2500134
-16.48157468702571 -49.081618327321046 -905.75 2566183
-16.262986163325102 -48.030420828054574 -907 2763562
-16.044397639624496 -46.9899826743278 -908.25 2763563
-15.913244525404133 -46.214228196892876 -909 3026735
-15.78209141118377 -45.44492932678176 -909.75 3158320
-15.694656001703526 -44.806896360262606 -910.25 3224370
-15.650938296963405 -44.2969014936735 -910.5 3356213
-15.650938296963405 -43.911716923352536 -910.5 3355956
-15.650938296963405 -43.52653235303157 -910.5 3553080
-15.650938296963405 -43.141347782710604 -910.5 3553081
-15.694656001703526 -42.87559383588793 -910.25 3618876
-15.78209141118377 -42.72604270890165 -909.75 3816255
-15.913244525404133 -42.68946659808985 -909 4408390
-16.044397639624496 -42.646434879954235 -908.25 5395286
-16.17555075384486 -42.5969475544948 -907.5 7830398
-16.350421572805345 -42.65505557244 -906.5 9738395
-16.52529239176583 -42.70455611395345 -905.5 10725034
-16.656445505986195 -42.633550097414634 -904.75 11843516
-16.743880915466438 -42.44526532648546 -904.25 11974845
-16.83131632494668 -42.25267681734041 -903.75 11975102
-16.83131632494668 -41.83844201406228 -903.75 12106687
-16.743880915466438 -41.209016523974874 -904.25 12106943
-16.700163210726316 -40.690414180954015 -904.5 12041150
-16.612727801246074 -40.0685202327444 -905 12304322
-16.48157468702571 -39.34656248300793 -905.75 12238787
-16.48157468702571 -38.94093515616155 -905.75 12304579
-16.48157468702571 -38.53530782931517 -905.75 12304580
-16.52529239176583 -38.23082023854961 -905.5 12304580
-16.569010096505952 -37.92418077867612 -905.25 12370373
-16.569010096505952 -37.5164015827218 -905.25 12304579
-16.612727801246074 -37.20653431918639 -905 12501701
-16.612727801246074 -36.7976791886781 -905 12436165
-16.612727801246074 -36.38882405816982 -905 12370372
-16.656445505986195 -36.07465305641853 -904.75 12501959
-16.656445505986195 -35.664721991356274 -904.75 12501958
-16.700163210726316 -35.34732318594308 -904.5 12567751
-16.700163210726316 -34.93631618632686 -904.5 12567751
-16.700163210726316 -34.525309186710636 -904.5 12567751
-16.700163210726316 -34.11430218709441 -904.5 12633544
-16.743880915466438 -33.79152370891137 -904.25 12633545
-16.743880915466438 -33.37944077474118 -904.25 12633544
-16.743880915466438 -32.96735784057098 -904.25 12502728
-16.743880915466438 -32.55527490640079 -904.25 12568521
-16.743880915466438 -32.143191972230596 -904.25 12437448
-16.743880915466438 -31.7311090380604 -904.25 12503242
-16.78759862020656 -31.400799017999578 -904 12634827
-16.78759862020656 -30.987640149275414 -904 12897487
-16.78759862020656 -30.57448128055125 -904 13029073
-16.83131632494668 -30.23986752227455 -903.75 13292757
-16.83131632494668 -29.82563271899642 -903.75 13424343
-16.83131632494668 -29.411397915718286 -903.75 13490136
-16.8750340296868 -29.072480419225712 -903.5 13621722
-16.8750340296868 -28.65716968139361 -903.5 13753308
-16.8750340296868 -28.241858943561507 -903.5 13884894
-16.8750340296868 -27.826548205729406 -903.5 13950687
-16.918751734426923 -27.482251036466987 -903.25 13950687
-16.962469439167045 -27.13580199809663 -903 14016480
-17.049904848647287 -26.856062790080074 -902.5 13950687
-17.181057962867648 -26.63980560875542 -901.75 14016991
-17.399646486568255 -26.55051248081456 -900.5 14213346
-17.793105829229347 -26.712995590533353 -898.25 14475748
-18.3177182861108 -27.049785762018303 -895.25 14542054
-19.060919266692864 -27.678163637667485 -891 14346215
-20.02270877097553 -28.58199019917135 -885.5 14281192
-21.246804503698925 -29.806456585804334 -878.5 11517373
-22.645771055382806 -31.211687529535006 -870.5 4542031
-24.30704383550741 -32.903128392667774 -861 3619900
-26.055752025112263 -34.62900293754299 -851 3618872
-27.935613328937475 -36.43988197620493 -840.25 3750714
-29.81547463276269 -38.15823064322551 -829.5 2698540
-31.65161823184778 -39.7291743883446 -819 3290935
-33.40032642145263 -41.10214239951793 -809 4869454
-34.974163792096995 -42.1781449217649 -800 7040881
-36.37313034378088 -42.97009316973314 -792 5989478
-37.55350837176415 -43.44032754602601 -785.25 7175550
-38.515297876046816 -43.60498706895306 -779.75 10333356
-39.302216561369 -43.528629699760145 -775.25 6977141
-40.00169983721094 -43.318852669859616 -771.25 1383708
-40.57002999883252 -42.935844512746904 -768 3225139
-41.05092475097385 -42.43447977868215 -765.25 5791063
-41.48810179837506 -41.86532927970962 -762.75 5527890
-41.925278845776276 -41.27466008965771 -760.25 5264718
-42.27502048369725 -40.57854553730138 -758.25 5462097
-42.58104441687809 -39.82432863102301 -756.5 5396304
-42.7996329405787 -38.97542570797991 -755.25 5988441
-43.01822146427931 -38.115763439397114 -754 5527377
-43.19309228323979 -37.207682227877996 -753 5724500
-43.32424539746015 -36.254409877084456 -752.25 5922648
-43.49911621642064 -35.3301896472558 -751.25 5396304
-43.630269330641 -34.362930147260656 -750.5 5330511
-43.76142244486137 -33.3892150399417 -749.75 5462610
-43.84885785434161 -32.376764400672144 -749.25 5331023
-43.98001096856197 -31.39121401325953 -748.5 5133899
-44.11116408278234 -30.399208018523098 -747.75 5396558
-44.2423171970027 -29.40074641646285 -747 5397071
-44.32975260648294 -28.367853020667873 -746.5 5727064
-44.417188015963184 -27.33065588665702 -746 5858651
-44.50462342544343 -26.28915501443029 -745.5 5792345
-44.54834113018355 -25.218602021238677 -745.25 5134414
-44.59205883492367 -24.14589715893912 -745 4937035
-44.635776539663794 -23.07104042753163 -744.75 5068366
-44.635776539663794 -21.972511247929102 -744.75 5791575
-44.59205883492367 -20.85353742379344 -745 6120540
-44.54834113018355 -19.73671546876572 -745.25 5396817
-44.46090572070331 -18.603752607420745 -745.75 5067852
-44.373470311223066 -17.475093484291644 -746.25 5595224
-44.28603490174282 -16.35073809937842 -746.75 6121568
-44.2423171970027 -15.24575142444436 -747 6253411
-44.32975260648294 -14.184883730246186 -746.5 5068880
-44.50462342544343 -13.145538503142827 -745.5 5463638
-44.72321194914404 -12.109422967709092 -744.25 5595224
-45.02923588232488 -11.084070553830482 -742.5 5989982
-45.29154211076561 -10.033969757202865 -741 5398358
-45.59756604394646 -8.979567110367087 -739.25 5464151
-45.81615456764707 -7.895034520004739 -738 5661274
-45.99102538660755 -6.793285088771168 -737 6845546
-46.122178500827914 -5.677546620328282 -736.25 6516582
-46.20961391030816 -4.5510469183379865 -735.75 4937294
-46.2970493197884 -3.420243478131814 -735.25 5529431
-46.34076702452852 -2.2829825425941106 -735 6318690
-46.38448472926864 -1.143569737948469 -734.75 6450535
-46.38448472926864 -0.002003176187172685 -734.75 6713705
-46.38448472926864 1.1395633855741238 -734.75 6450533
-46.38448472926864 2.28112994733542 -734.75 6516325
-46.34076702452852 3.4194705934425254 -735 6450533
-46.34076702452852 4.5599612206498525 -735 6318176
-46.2970493197884 5.695074063095051 -735.25 6450276
-46.253331615048275 6.82803503643231 -735.5 7173999
-46.253331615048275 7.966373794531699 -735.5 7239537
-46.253331615048275 9.104712552631089 -735.5 6911086
-46.253331615048275 10.243051310730477 -735.5 7305841
-46.34076702452852 11.402904983893817 -735 7371635
-46.38448472926864 12.555229003187089 -734.75 7306097
-46.515637843489 13.735523544868126 -734 7240303
-46.64679095770937 14.922273693872977 -733.25 7108716
-46.77794407192973 16.115479450201647 -732.5 7175022
-46.865379481409974 17.299003683552307 -732 7767160
-46.99653259563034 18.504044719974637 -731.25 7372147
-47.083968005110584 19.69725236431102 -730.75 7569270
-47.1276857098507 20.87539881289955 -730.5 8621957
-47.17140341459082 22.055697130596023 -730.25 8753032
-47.215121119330945 23.23814731740043 -730 8358530
-47.215121119330945 24.400156635687143 -730 8292737
-47.17140341459082 25.538497281794246 -730.25 8292737
-47.17140341459082 26.69943066552699 -730.25 8292481
-47.1276857098507 27.834543507972185 -730.5 8424580
-47.1276857098507 28.994400957150958 -730.5 8884874
-47.1276857098507 30.15425840632973 -730.5 8950667
-47.17140341459082 31.343164200457956 -730.25 8490116
-47.215121119330945 32.534221863694114 -730 8884874
-47.215121119330945 33.69623118198083 -730 9148561
-47.25883882407106 34.890516648878894 -729.75 9214354
-47.25883882407106 36.053601901719574 -729.75 9280147
-47.25883882407106 37.216687154560255 -729.75 8885648
-47.30255652881119 38.4152763596742 -729.5 8885648
-47.346274233551306 39.61601743389608 -729.25 9082512
-47.38999193829143 40.81891037722591 -729 9345425
-47.43370964303155 42.02395518966367 -728.75 9411218
-47.47742734777167 43.23115187120937 -728.5 9148559
-47.47742734777167 44.3996167968199 -728.5 9214352
-47.47742734777167 45.56808172243042 -728.5 9411731
-47.47742734777167 46.73654664804095 -728.5 9214352
-47.47742734777167 47.90501157365147 -728.5 10135197
-47.52114505251179 49.11866386252099 -728.25 10069148
-47.564862757251916 50.33446802049844 -728 10266527
-47.65229816673216 51.59976327995076 -727.5 10332835
-47.7397335762124 52.869362277618954 -727 10266786
-47.78345128095252 54.09377391202816 -726.75 10727080
-47.827168985692644 55.32033741554531 -726.5 10266016
-47.827168985692644 56.49740981758759 -726.5 10265247
-47.827168985692644 57.674482219629866 -726.5 10134430
-47.7397335762124 58.74396494229066 -727 10463396
-47.65229816673216 59.80914392673558 -727.5 10463397
-47.564862757251916 60.87001917296462 -728 10331041
-47.52114505251179 61.983613324330435 -728.25 10462627
-47.43370964303155 63.03695702868169 -728.75 10528164
-47.43370964303155 64.20434601973825 -728.75 10660004
-47.38999193829143 65.31148456378024 -729 10265246
-47.43370964303155 66.53912400185136 -728.75 10068637
-47.47742734777167 67.76891530903042 -728.5 10397602
-47.564862757251916 69.06433673599386 -728 10594724
-47.65229816673216 70.3640619011732 -727.5 10266273
-47.7397335762124 71.66809080456841 -727 10397602
-47.78345128095252 72.90971739184113 -726.75 10200221
-47.87088669043276 74.22127783711412 -726.25 9410961
-47.87088669043276 75.39942617371037 -726.25 9147532
-47.91460439517289 76.6475083683069 -726 9475983
-47.87088669043276 77.75572284690287 -726.25 9410191
-47.827168985692644 78.86178545639089 -726.5 10265500
-47.7397335762124 79.8925345351088 -727 10660258
-47.65229816673216 80.91897987561083 -727.5 10528672
-47.564862757251916 81.94112147789697 -728 10857637
-47.52114505251179 83.03534880729134 -728.25 11054761
-47.47742734777167 84.12742426757778 -728.5 11976121
-47.47742734777167 85.2958891931883 -728.5 12108221
-47.43370964303155 86.38473684981282 -728.75 11647414
-47.43370964303155 87.55212584086938 -728.75 10857383
-47.43370964303155 88.71951483192593 -728.75 10988712
-47.43370964303155 89.88690382298249 -728.75 11778228
-47.43370964303155 91.05429281403906 -728.75 11778485
-47.47742734777167 92.30667874685146 -728.5 10988969
-47.52114505251179 93.5612165487718 -728.25 10726308
-47.564862757251916 94.81790621980008 -728 10791844
-47.65229816673216 96.16497250535406 -727.5 10265500
-47.78345128095252 97.60564320909563 -726.75 10265500
-47.87088669043276 98.96239290563534 -726.25 10265500
-47.958322099913005 100.32344634039092 -725.75 10067865
-48.04575750939325 101.68880351336236 -725.25 10133403
-48.13319291887349 103.0584644245497 -724.75 10264989
-48.176910623613615 104.33774872121133 -724.5 10330269
-48.22062832835373 105.6191848869809 -724.25 10658977
-48.22062832835373 106.8059407000089 -724.25 10856356
-48.176910623613615 107.89478835663343 -724.5 10724770
-48.08947521413337 108.88250005319256 -725 10395807
-48.00203980465313 109.86590801153582 -725.5 10198428
-47.87088669043276 110.74387627159783 -726.25 10132635
-47.69601587147228 111.51317702971664 -727.25 10132634
-47.564862757251916 112.37715814057705 -728 10066840
-47.47742734777167 113.33904740784092 -728.5 10132632
-47.38999193829143 114.29663293688893 -729 10395803
-47.30255652881119 115.24991472772105 -729.5 10067608
-47.25883882407106 116.3064843477265 -729.75 10199194
-47.215121119330945 117.36090209862401 -730 10001815
-47.04025030037046 119.241643250993 -731 10593695
-46.821661776669856 124.44917593224238 -732.25 10395803
-48.22062832835373 134.10132439965295 -724.25 8289918
-49.313570946856764 139.5681006681774 -718 9474192
-15.64823489694638 -48.174586618247865 -908.25 2236962
-15.64823489694638 -47.779718636941176 -908.25 2236962
-15.64823489694638 -47.38485065563449 -908.25 2368548
-15.64823489694638 -46.9899826743278 -908.25 2368548
-15.605596654720369 -46.46815252764503 -908.5 2499621
-15.562958412494357 -45.948474250070205 -908.75 2500134
-15.520320170268345 -45.43094784160331 -909 2565927
-15.477681928042333 -44.91557330224436 -909.25 2697513
-15.435043685816321 -44.40235063199335 -909.5 2961198
-15.39240544359031 -43.89127983085027 -909.75 2960942
-15.39240544359031 -43.5028674568674 -909.75 3223857
-15.39240544359031 -43.114455082884525 -909.75 3487032
-15.435043685816321 -42.84439739784598 -909.5 3618874
-15.477681928042333 -42.572187843699496 -909.25 3815994
-15.562958412494357 -42.41402924028146 -908.75 3881788
-15.64823489694638 -42.251566898647546 -908.25 3947839
-15.776149623624416 -42.19885176952621 -907.5 4474183
-15.904064350302454 -42.13968103308105 -906.75 5921631
-16.031979076980488 -42.07405468931208 -906 8816523
-16.159893803658523 -42.001972738219294 -905.25 10658727
-16.245170288110547 -41.81368796729012 -904.75 11711416
-16.33044677256257 -41.62109945814507 -904.25 11119278
-16.373085014788586 -41.31661186737951 -904 12106685
-16.33044677256257 -40.79693358980468 -904.25 12106943
-16.28780853033656 -40.27940718133779 -904.5 12106943
-16.159893803658523 -39.55529756249339 -905.25 12172992
-16.0746173192065 -38.94093515616155 -905.75 12238786
-16.031979076980488 -38.43309215868039 -906 12370372
-16.031979076980488 -38.02854076638798 -906 12304580
-16.031979076980488 -37.623989374095565 -906 12370372
-16.0746173192065 -37.31842584877604 -905.75 12436165
-16.0746173192065 -36.91279852192965 -905.75 12567494
-16.11725556143251 -36.60400719294822 -905.5 12567495
-16.159893803658523 -36.29306399485884 -905.25 12436165
-16.159893803658523 -35.88528479890452 -905.25 12501958
-16.202532045884535 -35.57111379715324 -905 12633543
-16.202532045884535 -35.16225866664495 -905 12567751
-16.245170288110547 -34.84485986123176 -904.75 12567751
-16.245170288110547 -34.43492879616951 -904.75 12567751
-16.245170288110547 -34.02499773110725 -904.75 12567751
-16.28780853033656 -33.70329518747818 -904.5 12633545
-16.28780853033656 -33.292288187861956 -904.5 12502728
-16.33044677256257 -32.96735784057098 -904.25 12502985
-16.33044677256257 -32.55527490640079 -904.25 12569034
-16.373085014788586 -32.22711675544791 -904 12503241
-16.373085014788586 -31.813957886723742 -904 12569034
-16.415723257014598 -31.48257193210895 -903.75 12634827
-16.415723257014598 -31.06833712883082 -903.75 12831694
-16.415723257014598 -30.654102325552685 -903.75 12963280
-16.415723257014598 -30.23986752227455 -903.75 13161171
-16.415723257014598 -29.82563271899642 -903.75 13424343
-16.415723257014598 -29.411397915718286 -903.75 13490136
-16.415723257014598 -28.997163112440155 -903.75 13687515
-16.415723257014598 -28.58292830916202 -903.75 13819101
-16.415723257014598 -28.168693505883887 -903.75 13884894
-16.45836149924061 -27.826548205729406 -903.5 13950687
-16.50099974146662 -27.482251036466987 -903.25 13950687
-16.543637983692633 -27.13580199809663 -903 14016480
-16.628914468144657 -26.856062790080074 -902.5 13950687
-16.799467437048705 -26.707591373663195 -901.5 14082272
-17.055296890404776 -26.68393214152217 -900 14409699
-17.439041070438883 -26.844263382133025 -897.75 14607077
-18.03597646160305 -27.308017607001773 -894.25 14607591
-18.803464821671266 -27.995573771126974 -889.75 14543594
-19.78414439286954 -28.956426751998922 -884 14215399
-21.020653417423887 -30.23576768889205 -876.75 10201513
-22.42771541088228 -31.69372131377493 -868.5 4212553
-24.047968615470733 -33.37655470047595 -859 3685435
-25.75349830451121 -35.09382176891941 -849 3618615
-27.544304478003713 -36.83906691178151 -838.5 3487542
-29.335110651496212 -38.49393355211019 -828 2369575
-31.04064034053669 -39.948672589385176 -818 3290936
-32.66089354512514 -41.20973963093028 -808.5 3488315
-34.153232023035564 -42.2308676029171 -799.75 3685696
-35.47501753204193 -42.97009316973314 -792 5332061
-36.58361182991824 -43.38975673398175 -785.5 7241342
-37.56429140111652 -43.60498706895306 -779.75 10464941
-38.374418003410746 -43.577048642696475 -775 7634815
-39.09926812125295 -43.41353868662434 -770.75 1647137
-39.696203512417114 -43.07464573423208 -767.25 2501672
-40.207862419129256 -42.61524433577984 -764.25 5263949
-40.67688308361539 -42.08590530331188 -761.5 6053977
-41.060627263649494 -41.44681717032364 -759.25 5396305
-41.40173320145759 -40.74639887975144 -757.25 5527890
-41.70020089703968 -39.987878235257185 -755.5 5264718
-41.95603035039575 -39.174483040502786 -754 5462098
-42.21185980375182 -38.348176631100756 -752.5 5461073
-42.38241277265587 -37.43363981225782 -751.5 6053467
-42.552965741559916 -36.510495516983134 -750.5 5592916
-42.72351871046396 -35.5787437452767 -749.5 5330000
-42.851433437142 -34.60395270340377 -748.75 5330514
-42.93670992159402 -33.58935019502627 -748.25 5462355
-43.06462464827206 -32.60272387305968 -747.5 5199182
-43.14990113272408 -31.578437953696465 -747 5725269
-43.27781585940212 -30.579976351636216 -746.25 6975076
-43.36309234385414 -29.54600702128727 -745.75 7239018
-43.49100707053218 -28.535710139133364 -745 6317917
-43.53364531275819 -27.46515714594175 -744.75 5462354
-43.61892179721021 -26.418276600945173 -744.25 5659476
-43.61892179721021 -25.317595552234707 -744.25 5725269
-43.661560039436225 -24.240586951719276 -744 5462610
-43.661560039436225 -23.13882996845484 -744 5528403
-43.70419828166224 -22.0585935642775 -743.75 7765621
-43.70419828166224 -20.955760646459098 -743.75 6187103
-43.74683652388825 -19.872296438619852 -743.5 5726552
-43.74683652388825 -18.768387586247478 -743.5 5463637
-43.78947476611426 -17.681695574746325 -743.25 6188130
-43.83211300834027 -16.592851694137234 -743 6385766
-43.917389492792296 -15.51692091618349 -742.5 5858908
-44.08794246169634 -14.464664474432501 -741.5 5266771
-44.25849543060039 -13.40380055624976 -740.5 5727065
-44.42904839950444 -12.334329161635264 -739.5 5989982
-44.6422396106345 -11.267011524136423 -738.25 5726810
-44.812792579538545 -10.17924924210445 -737.25 5726810
-44.98334554844259 -9.082879483640726 -736.25 5726811
-45.11126027512063 -7.970368818859746 -735.5 6121826
-45.239175001798664 -6.851402546754952 -734.75 5990495
-45.32445148625069 -5.72059910654878 -734.25 5003600
-45.3670897284767 -4.581186301903139 -734 5134675
-45.45236621292872 -3.442851319819182 -733.5 6318949
-45.495004455154735 -2.2980588424036945 -733.25 6779500
-45.53764269738075 -1.1511144958802686 -733 6318948
-45.495004455154735 -0.0020145042334714937 -733.25 6253411
-45.495004455154735 1.14600766485164 -733.25 6056288
-45.40972797070271 2.2897298717363075 -733.75 6385253
-45.32445148625069 3.429148340405099 -734.25 6976876
-45.19653675957265 4.5599612206498525 -735 7107948
-45.11126027512063 5.689696278332922 -735.5 6713447
-44.98334554844259 6.808673878484014 -736.25 7108463
-44.89806906399057 7.928725525181361 -736.75 7503478
-44.812792579538545 9.04447343366283 -737.25 6845549
-44.812792579538545 10.175280649884435 -737.25 7108976
-44.85543082176456 11.316845323638015 -737 6977134
-44.94070730621658 12.472395258585477 -736.5 7240304
-45.11126027512063 13.658067585028643 -735.5 7503475
-45.281813244024676 14.852347387903563 -734.5 7503730
-45.45236621292872 16.05523466721024 -733.5 6911337
-45.66555742405878 17.282866553250486 -732.25 7503731
-45.79347215073682 18.486831655118845 -731.5 8227712
-45.92138687741486 19.69725236431102 -730.75 7964541
-46.006663361866885 20.89476374686328 -730.25 8227970
-46.09193984631891 22.09657886763142 -729.75 7833212
-46.09193984631891 23.2596641204721 -729.75 8490629
-46.09193984631891 24.42274937331278 -729.75 8622215
-46.049301604092896 25.562165953973853 -730 8621957
-46.006663361866885 26.69943066552699 -730.25 8885129
-45.96402511964087 27.834543507972185 -730.5 9016458
-45.92138687741486 28.967504481309447 -730.75 8358785
-45.92138687741486 30.12628599593425 -730.75 8358530
-45.92138687741486 31.285067510559053 -730.75 8556165
-45.96402511964087 32.47397330468728 -730.5 9148815
-45.96402511964087 33.63383075386605 -730.5 9016973
-46.049301604092896 34.858240500267534 -730 9082767
-46.09193984631891 36.053601901719574 -729.75 9280147
-46.17721633077093 37.28554318999885 -729.25 9016975
-46.262492815222956 38.521788216494 -728.75 9083025
-46.34776929967498 39.762336981205024 -728.25 9016719
-46.433045784127 41.007189484131935 -727.75 9411476
-46.56096051080504 43.46999801414423 -727 9345940
-46.60359875303105 44.68580217212168 -726.75 9411733
-46.60359875303105 45.861798639609994 -726.75 10464421
-46.60359875303105 47.037795107098304 -726.75 9674905
-46.60359875303105 48.213791574586615 -726.75 9938077
-46.64623699525706 49.43497540533391 -726.5 10200736
-46.64623699525706 50.61204780737619 -726.5 9608599
-46.688875237483074 51.836459441785394 -726.25 10003870
-46.731513479709086 53.06302294530254 -726 9674649
-46.731513479709086 54.24224721645276 -726 9740185
-46.731513479709086 55.42147148760298 -726 9476500
-46.731513479709086 56.6006957587532 -726 10002074
-46.688875237483074 57.72720112476664 -726.25 10134430
-46.64623699525706 58.85155462167214 -726.5 10331809
-46.60359875303105 59.973756249469716 -726.75 10528932
-46.56096051080504 61.09380600815934 -727 10331297
-46.51832226857903 62.21170389774103 -727.25 10594213
-46.475684026353015 63.32744991821479 -727.5 10199455
-46.433045784127 64.4410440695806 -727.75 9804695
-46.39040754190099 65.55248635183848 -728 9541523
-46.34776929967498 66.66177676498842 -728.25 10068637
-46.34776929967498 67.8313176251529 -728.25 10200223
-46.39040754190099 69.06433673599386 -728 10331552
-46.433045784127 70.29950771594277 -727.75 10068637
-46.56096051080504 71.66809080456841 -727 10397602
-46.688875237483074 73.04312950051786 -726.25 10332063
-46.81678996416111 74.42462380379115 -725.5 9279375
-46.98734293306516 75.88143163783454 -724.5 9081739
-47.11525765974319 77.27691309030942 -723.75 9344142
-47.20053414419522 78.60784035755385 -723.25 9870486
-47.20053414419522 80.98995946004162 -723.25 11910325
-47.07261941751718 81.95830622263702 -724 11647153
-46.944704690839146 82.92019737790861 -724.75 11383981
-46.7741517219351 83.7992434605323 -725.75 10923175
-46.64623699525706 84.74714746660229 -726.5 11712692
-46.51832226857903 85.68859586534847 -727.25 11976634
-46.433045784127 86.70320592575683 -727.75 11581621
-46.39040754190099 87.79420545148929 -728 10725540
-46.39040754190099 88.96482224620776 -728 10791333
-46.39040754190099 90.13543904092623 -728 11120298
-46.39040754190099 91.30605583564468 -728 10462625
-46.433045784127 92.561669572119 -727.75 10462626
-46.475684026353015 93.81943517770125 -727.5 10791844
-46.56096051080504 95.16650146325523 -727 10857637
-46.688875237483074 96.60609623244284 -726.25 11120809
-46.81678996416111 98.05214660895426 -725.5 11186602
-46.944704690839146 99.5046525927895 -724.75 10331293
-47.11525765974319 101.05506673302823 -723.75 10199707
-47.24317238642123 102.52155986606506 -723 9936281
-47.413725355325276 104.0881130246133 -722 10264989
-47.54164008200331 105.56859330685175 -721.25 10462368
-47.626916566455336 106.95977290911847 -720.75 10067610
-47.71219305090736 108.35525624960106 -720.25 9935767
-47.75483129313337 109.65713517189604 -720 10132633
-47.75483129313337 110.86218187234152 -720 10001049
-47.71219305090736 111.96716854727558 -720.25 9869720
-47.54164008200331 112.76659547290555 -721.25 10001306
-47.157895901969205 114.23633906569688 -723.5 10264733
-46.944704690839146 114.90450386375034 -724.75 10001815
-46.731513479709086 115.56190931626408 -726 10264987
-46.60359875303105 116.4215866889086 -726.75 10133401
