VERSION 0.7 
FIELDS x y z rgb 
SIZE 4 4 4 4 
TYPE F F F U 
COUNT 1 1 1 1 
WIDTH 893 
HEIGHT 1 
VIEWPOINT 0 0 0 1 0 0 0 
POINTS 893 
DATA ascii 
104.1443944507826 117.8290034858861 -739.25 16742688
104.24424526041902 119.06525040038898 -739 16742688
104.34409607005543 120.30364918399978 -738.75 16742688
104.34409607005543 121.42800079289756 -738.75 16742688
104.1443944507826 123.44000218483536 -739.25 16742688
103.94469283150977 124.32334822965949 -739.75 16742688
103.74499121223693 125.20239053626774 -740.25 16742688
103.44543878332769 125.95555038806931 -741 16742688
103.14588635441844 126.70225463254707 -741.75 16742688
102.9461847351456 127.56623385539976 -742.25 16742688
37.14234015139356 -48.70179643770047 -908 13086720
37.041409879243034 -48.174586618247865 -908.25 13086720
36.940479607092506 -47.64952866790319 -908.5 13086720
36.839549334941985 -47.12662258666645 -908.75 13086720
36.73861906279146 -46.60586837453766 -909 13086720
36.73861906279146 -46.214228196892876 -909 13086720
36.63768879064093 -45.69670178842598 -909.25 13086720
36.63768879064093 -45.30613754533517 -909.25 13086720
36.53675851849041 -44.79183894053019 -909.5 13086720
36.53675851849041 -44.40235063199335 -909.5 13086720
36.53675851849041 -44.0128623234565 -909.5 13086720
36.53675851849041 -43.62337401491966 -909.5 13086720
36.53675851849041 -43.23388570638282 -909.5 13086720
36.63768879064093 -42.9627520867903 -909.25 13086720
36.63768879064093 -42.572187843699496 -909.25 13086720
36.73861906279146 -42.29782642044507 -909 13086720
36.839549334941985 -42.02131312808271 -908.75 13086720
36.839549334941985 -41.62859701588396 -908.75 13086720
36.839549334941985 -41.23588090368521 -908.75 13086720
36.839549334941985 -40.84316479148646 -908.75 13086720
36.839549334941985 -40.45044867928771 -908.75 13086720
36.839549334941985 -40.05773256708896 -908.75 13086720
36.73861906279146 -39.55634517693161 -909 13086720
36.63768879064093 -39.05710965588219 -909.25 13086720
36.63768879064093 -38.66654541279138 -909.25 13086720
36.53675851849041 -38.17053769540387 -909.5 13086720
36.43582824633988 -37.67668184712431 -909.75 13086720
36.33489797418935 -37.184977867952675 -910 13086720
36.233967702038825 -36.695425757888984 -910.25 13086720
36.133037429888304 -36.20802551693323 -910.5 13086720
36.133037429888304 -35.82284094661227 -910.5 13086720
36.133037429888304 -35.4376563762913 -910.5 13086720
36.03210715773778 -34.954559873551425 -910.75 13086720
36.03210715773778 -34.570451237784425 -910.75 13086720
36.03210715773778 -34.18634260201743 -910.75 13086720
36.133037429888304 -33.89691809500744 -910.5 13086720
36.133037429888304 -33.51173352468648 -910.5 13086720
36.133037429888304 -33.12654895436551 -910.5 13086720
36.133037429888304 -32.741364384044545 -910.5 13086720
36.133037429888304 -32.35617981372358 -910.5 13086720
36.133037429888304 -31.970995243402612 -910.5 13086720
36.133037429888304 -31.58581067308165 -910.5 13086720
36.133037429888304 -31.200626102760683 -910.5 13086720
36.233967702038825 -30.901518184764967 -910.25 13086720
36.233967702038825 -30.515257679890034 -910.25 13086720
36.233967702038825 -30.128997175015098 -910.25 13086720
36.233967702038825 -29.742736670140165 -910.25 13086720
36.133037429888304 -29.274703251155856 -910.5 13086720
36.133037429888304 -28.88951868083489 -910.5 13086720
36.133037429888304 -28.504334110513927 -910.5 13086720
36.03210715773778 -28.040604429745493 -910.75 13086720
36.03210715773778 -27.656495793978497 -910.75 13086720
36.03210715773778 -27.2723871582115 -910.75 13086720
36.03210715773778 -26.888278522444505 -910.75 13086720
36.133037429888304 -26.5784112589091 -910.5 13086720
36.43582824633988 -26.412723001620996 -909.75 13086720
36.839549334941985 -26.312668640132728 -908.75 13086720
37.546061239995666 -26.417047507921755 -907 13086720
38.65629423365145 -26.786113828018063 -904.25 15442616
40.27117858805987 -27.47581808523577 -900.25 15442616
42.592574847521966 -28.605592791080884 -894.5 15442616
45.51955273988722 -30.086133489566247 -887.25 15442616
49.25397280945668 -32.02934115032009 -878 15442616
53.694904784079824 -34.344835382801286 -867 16720000
58.6404881194556 -36.88305750799268 -854.75 16720000
63.989792543433474 -39.5654624154468 -841.5 16720000
69.33909696741135 -42.1338182601802 -828.25 16727648
74.48654084708818 -44.467616596132885 -815.5 16727648
79.2302636381629 -46.45495645367663 -803.75 16727648
83.36840479633446 -47.99254433961496 -793.5 16735088
86.80003404945235 -49.04272065655123 -785 16735088
89.62608166966707 -49.68403051493292 -778 16735088
91.94747792912916 -49.990715286991616 -772.25 16735088
93.66329255568812 -49.92511537533068 -768 16735088
95.07631636579548 -49.66476564537817 -764.5 16735088
96.28747963160178 -49.27099625471805 -761.5 16735088
97.19585208095653 -48.69969199862986 -759.25 16735088
97.9023639860102 -48.01003116558964 -757.5 16742688
98.50794561891335 -47.25688830585751 -756 16742688
99.01259697966599 -46.44349122309539 -754.75 16742688
99.51724834041862 -45.61933479479359 -753.5 16742688
99.92096942902072 -44.739227881677664 -752.5 16742688
100.32469051762283 -43.85051349212999 -751.5 16742688
100.82934187837546 -42.99623089631705 -750.25 16742688
101.33399323912809 -42.131188954964415 -749 16742688
101.93957487203124 -41.29627506913063 -747.5 16742688
102.64608677708492 -40.488261435153795 -745.75 16742688
103.3525986821386 -39.66518471742139 -744 16742688
103.85725004289124 -38.75172572114014 -742.75 16742688
104.36190140364387 -37.8275073793192 -741.5 16742688
104.66469222009545 -36.82151423538117 -740.75 16742688
104.8665527643965 -35.7746336903846 -740.25 16742688
104.8665527643965 -34.65673768881062 -740.25 16742688
104.8665527643965 -33.53884168723665 -740.25 16742688
104.76562249224597 -32.38974169558985 -740.5 16742688
104.76562249224597 -31.272921628569847 -740.5 16742688
104.76562249224597 -30.15610156154984 -740.5 16742688
104.76562249224597 -29.039281494529835 -740.5 16742688
104.76562249224597 -27.92246142750983 -740.5 16742688
104.8665527643965 -26.8314656777928 -740.25 16742688
104.96748303654702 -25.738318058967835 -740 16742688
105.06841330869754 -24.64301857103493 -739.75 16742688
105.2702738529986 -23.568163727635152 -739.25 16742688
105.47213439729966 -22.4890051460195 -738.75 16742688
105.6739949416007 -21.405542826187975 -738.25 16742688
105.87585548590175 -20.31777676814057 -737.75 16742688
106.07771603020281 -19.225706971877287 -737.25 16742688
106.17864630235333 -18.112116596526906 -737 16742688
106.27957657450386 -16.99637435206859 -736.75 16742688
106.38050684665438 -15.878480238502329 -736.5 16742688
106.38050684665438 -14.744445218618816 -736.5 16742688
106.38050684665438 -13.610410198735304 -736.5 16742688
106.38050684665438 -12.476375178851793 -736.5 16742688
106.38050684665438 -11.34234015896828 -736.5 16742688
106.38050684665438 -10.208305139084768 -736.5 16742688
106.38050684665438 -9.074270119201255 -736.5 16742688
106.38050684665438 -7.940235099317744 -736.5 16742688
106.38050684665438 -6.806200079434231 -736.5 16742688
106.4814371188049 -5.677546620328282 -736.25 16742688
106.58236739095544 -4.546741292114393 -736 16742688
106.58236739095544 -3.410554403122942 -736 16742688
106.68329766310596 -2.2765212712471463 -735.75 16742688
106.88515820740702 -1.1414140928250978 -735.25 16742688
106.98608847955754 -0.002001288179456217 -735 16742688
107.08701875170807 1.1395633855741238 -734.75 16742688
107.28887929600911 2.2854299095358637 -734.25 16742688
107.49073984031017 3.4356001717134808 -733.75 16742688
107.59167011246069 4.585772321898814 -733.5 16742688
107.79353065676175 5.743474125954215 -733 16742688
107.89446092891228 6.899025948909395 -732.75 16742688
107.9953912010628 8.056729640972513 -732.5 16742688
108.09632147321332 9.216585202143568 -732.25 16742688
108.19725174536386 10.378592632422563 -732 16742688
108.19725174536386 11.53199447427752 -732 16742688
108.19725174536386 12.685396316132477 -732 16742688
108.19725174536386 13.838798157987435 -732 16742688
108.19725174536386 14.992199999842393 -732 16742688
108.09632147321332 16.130540645949498 -732.25 16742688
108.09632147321332 17.282866553250486 -732.25 16742688
108.09632147321332 18.435192460551473 -732.25 16742688
108.09632147321332 19.587518367852464 -732.25 16742688
108.09632147321332 20.73984427515345 -732.25 16742688
108.09632147321332 21.89217018245444 -732.25 16742688
108.09632147321332 23.044496089755427 -732.25 16742688
108.19725174536386 24.21941473468205 -732 16742688
108.19725174536386 25.37281657653701 -732 16742688
108.19725174536386 26.526218418391966 -732 16742688
108.19725174536386 27.679620260246924 -732 16742688
108.19725174536386 28.833022102101882 -732 16742688
108.29818201751438 30.01439635435232 -731.75 16742688
108.50004256181543 31.22697082066015 -731.25 16742688
108.60097283396595 32.41372474568043 -731 16742688
108.70190310611649 33.60263053980866 -730.75 16742688
108.70190310611649 34.76141205443346 -730.75 16742688
108.70190310611649 35.92019356905826 -730.75 16742688
108.60097283396595 37.04454706596377 -731 16742688
108.50004256181543 38.166748693761335 -731.25 16742688
108.50004256181543 39.3233783392782 -731.25 16742688
108.50004256181543 40.480007984795066 -731.25 16742688
108.60097283396595 41.675369386247105 -731 16742688
108.70190310611649 42.87288265680708 -730.75 16742688
108.90376365041753 44.11343142151811 -730.25 16742688
109.10562419471859 45.35828392444501 -729.75 16742688
109.30748473901964 46.607440165587796 -729.25 16742688
109.50934528332068 47.860900144946456 -728.75 16742688
109.61027555547122 49.073476499262 -728.5 16742688
109.61027555547122 50.24194142487252 -728.5 16742688
109.61027555547122 51.41040635048305 -728.5 16742688
109.61027555547122 52.57887127609358 -728.5 16742688
109.61027555547122 53.7473362017041 -728.5 16742688
109.50934528332068 54.86523409128579 -728.75 16742688
109.50934528332068 56.03262308234235 -728.75 16742688
109.40841501117016 57.14729316826213 -729 16742688
109.40841501117016 58.31360622476472 -729 16742688
109.40841501117016 59.47991928126731 -729 16742688
109.50934528332068 60.702179046568574 -728.75 16742688
109.50934528332068 61.869568037625136 -728.75 16742688
109.50934528332068 63.03695702868169 -728.75 16742688
109.50934528332068 64.20434601973825 -728.75 16742688
109.40841501117016 65.31148456378024 -729 16742688
109.30748473901964 66.41647123871431 -729.25 16742688
109.20655446686911 67.51930604454043 -729.5 16742688
109.00469392256807 68.55651073058215 -730 16742688
108.70190310611649 69.52485749317756 -730.75 16742688
108.50004256181543 70.55237876823355 -731.25 16742688
108.3991122896649 71.64230235941204 -731.5 16742688
108.19725174536386 72.66229209259026 -732 16742688
108.19725174536386 73.81569393444522 -732 16742688
108.09632147321332 74.8991619182999 -732.25 16742688
108.19725174536386 76.12249761815514 -732 16742688
108.19725174536386 77.2758994600101 -732 16742688
108.29818201751438 78.50246296352724 -731.75 16742688
108.3991122896649 79.73117833615231 -731.5 16742688
108.60097283396595 81.03735910865547 -731 16742688
108.80283337826701 82.34784361937449 -730.5 16742688
109.00469392256807 83.66263186830939 -730 16742688
109.00469392256807 84.8246411865961 -730 16742688
108.90376365041753 85.9070332358968 -730.25 16742688
108.60097283396595 86.82588700900963 -731 16742688
108.19725174536386 87.6565160367047 -732 16742688
107.59167011246069 88.31284744267221 -733.5 16742688
106.98608847955754 88.95626763399207 -735 16742688
106.58236739095544 89.75677049417601 -736 16742688
106.27957657450386 90.634738754238 -736.75 16742688
106.17864630235333 91.68054902870375 -737 16742688
106.38050684665438 92.98888167031484 -736.5 16742688
106.7842279352565 94.48011941008525 -735.5 16742688
107.1879490238586 95.97996462628743 -734.5 16742688
107.59167011246069 97.48841731892134 -733.5 16742688
107.9953912010628 99.00547748798701 -732.5 16742688
108.3991122896649 100.53114513348444 -731.5 16742688
108.60097283396595 101.87605954993047 -731 16742688
108.80283337826701 103.2252777045924 -730.5 16742688
108.80283337826701 104.38513515377117 -730.5 16742688
108.70190310611649 105.44708444654646 -730.75 16742688
105.47213439729966 110.18448470391968 -738.75 16742688
105.06841330869754 110.88277378147653 -739.75 16742688
104.76562249224597 111.68004694999084 -740.5 16742688
104.56376194794491 112.5795320131245 -741 16742688
104.46283167579439 113.58445677453943 -741.25 16742688
104.56376194794491 114.80886840894864 -741 16742688
104.66469222009545 116.03543191246578 -740.75 16742688
104.8665527643965 117.37711852524991 -740.25 16742688
105.16934358084808 118.83715605096295 -739.5 16742688
105.37120412514912 120.18852607473279 -739 16742688
105.57306466945018 121.54419983671852 -738.5 16742688
105.47213439729966 123.67670401069314 -738.75 16742688
105.16934358084808 124.44277507714236 -739.5 16742688
104.66469222009545 124.96138497219408 -740.75 16742688
104.0591105871923 125.3476568051153 -742.25 16742688
103.45352895428913 125.72101742338891 -743.75 16742688
102.84794732138597 126.08146682701489 -745.25 16742688
36.4174752752748 -47.2460362180953 -910.75 13086720
36.51948500993944 -46.99319348592026 -910.5 13086720
36.62149474460407 -46.73819888463728 -910.25 13086720
36.62149474460407 -46.351938379762345 -910.25 13086720
36.62149474460407 -45.96567787488741 -910.25 13086720
36.723504479268705 -45.70637953538856 -910 13086720
36.723504479268705 -45.31904309595965 -910 13086720
36.723504479268705 -44.93170665653075 -910 13086720
36.62149474460407 -44.42063585538767 -910.25 13086720
36.62149474460407 -44.03437535051274 -910.25 13086720
36.62149474460407 -43.64811484563781 -910.25 13086720
36.62149474460407 -43.26185434076287 -910.25 13086720
36.62149474460407 -42.87559383588793 -910.25 13086720
36.62149474460407 -42.489333331013 -910.25 13086720
36.62149474460407 -42.10307282613807 -910.25 13086720
36.62149474460407 -41.716812321263134 -910.25 13086720
36.62149474460407 -41.3305518163882 -910.25 13086720
36.62149474460407 -40.94429131151326 -910.25 13086720
36.62149474460407 -40.55803080663833 -910.25 13086720
36.62149474460407 -40.171770301763395 -910.25 13086720
36.62149474460407 -39.78550979688846 -910.25 13086720
36.62149474460407 -39.39924929201353 -910.25 13086720
36.62149474460407 -39.01298878713859 -910.25 13086720
36.62149474460407 -38.626728282263656 -910.25 13086720
36.62149474460407 -38.24046777738872 -910.25 13086720
36.62149474460407 -37.85420727251379 -910.25 13086720
36.62149474460407 -37.46794676763886 -910.25 13086720
36.62149474460407 -37.08168626276392 -910.25 13086720
36.62149474460407 -36.695425757888984 -910.25 13086720
36.51948500993944 -36.20802551693323 -910.5 13086720
36.51948500993944 -35.82284094661227 -910.5 13086720
36.51948500993944 -35.4376563762913 -910.5 13086720
36.51948500993944 -35.052471805970335 -910.5 13086720
36.51948500993944 -34.66728723564937 -910.5 13086720
36.4174752752748 -34.18634260201743 -910.75 13086720
36.51948500993944 -33.89691809500744 -910.5 13086720
36.51948500993944 -33.51173352468648 -910.5 13086720
36.51948500993944 -33.12654895436551 -910.5 13086720
36.51948500993944 -32.741364384044545 -910.5 13086720
36.51948500993944 -32.35617981372358 -910.5 13086720
36.51948500993944 -31.970995243402612 -910.5 13086720
36.51948500993944 -31.58581067308165 -910.5 13086720
36.51948500993944 -31.200626102760683 -910.5 13086720
36.51948500993944 -30.815441532439717 -910.5 13086720
36.51948500993944 -30.43025696211875 -910.5 13086720
36.4174752752748 -29.961147608580475 -910.75 13086720
36.4174752752748 -29.57703897281348 -910.75 13086720
36.4174752752748 -29.192930337046484 -910.75 13086720
36.31546554061016 -28.728124721724082 -911 13086720
36.31546554061016 -28.345092020511053 -911 13086720
36.31546554061016 -27.962059319298028 -911 13086720
36.31546554061016 -27.579026618085003 -911 13086720
36.31546554061016 -27.195993916871974 -911 13086720
36.4174752752748 -26.888278522444505 -910.75 13086720
36.62149474460407 -26.65265263114069 -910.25 13086720
36.82551421393334 -26.412723001620996 -909.75 13086720
37.335562887256515 -26.38475814325638 -908.5 13086720
38.049631029908966 -26.488061076491437 -906.75 15442616
39.17173811121995 -26.856051462033776 -904 15442616
40.80389386585412 -27.54467978469751 -900 15442616
43.04810802847609 -28.605592791080884 -894.5 15442616
46.10840006841515 -30.152843319920052 -887 15442616
49.780750516342025 -32.02934115032009 -878 15442616
54.269178841585976 -34.344835382801286 -867 16720000
59.369665574817745 -36.946539534684575 -854.5 16720000
64.77618151204341 -39.627868507584736 -841.25 16720000
70.38671691859835 -42.31780873293208 -827.5 16727648
75.6912231211594 -44.70863348825285 -814.5 16727648
80.58769038506189 -46.75084789605673 -802.5 16727648
84.87209924097657 -48.341158463147266 -792 16735088
88.44243995423881 -49.44190559212781 -783.25 16735088
91.2987125248486 -50.07568390863172 -776.25 16735088
93.54292668747057 -50.319962588552485 -770.75 16735088
95.379101911434 -50.30170568527391 -766.25 16735088
96.8072381967389 -50.03382441344361 -762.75 16735088
97.92934527804988 -49.580876734307466 -760 16735088
98.74542315536696 -48.9525460588512 -758 16735088
99.45949129801942 -48.25750555304113 -756.25 16742688
99.96953997134258 -47.45056407760283 -755 16742688
100.37757891000113 -46.585520248242474 -754 16742688
100.68360811399504 -45.66560186862198 -753.25 16742688
100.98963731798894 -44.739227881677664 -752.5 16742688
101.19365678731822 -43.76228308268909 -752 16742688
101.49968599131212 -42.82407381565112 -751.25 16742688
101.80571519530602 -41.87940894128933 -750.5 16742688
102.21375413396457 -40.96917586066227 -749.5 16742688
102.72380280728774 -40.090146770108035 -748.25 16742688
103.13184174594629 -39.1616228020635 -747.25 16742688
103.53988068460482 -38.22449135758721 -746.25 16742688
103.94791962326336 -37.27875243667918 -745.25 16742688
104.25394882725728 -36.28889831105068 -744.5 16742688
104.45796829658654 -35.25815678436364 -744 16742688
104.66198776591581 -34.22311151946073 -743.5 16742688
104.96801696990973 -33.21604244096873 -742.75 16742688
105.172036439239 -32.17131376508009 -742.25 16742688
105.37605590856826 -31.12228135097558 -741.75 16742688
105.4780656432329 -30.039893077690305 -741.5 16742688
105.68208511256216 -28.983329121708003 -741 16742688
105.7840948472268 -27.895561175652883 -740.75 16742688
105.88610458189143 -26.805641360489822 -740.5 16742688
105.98811431655608 -25.713569676218825 -740.25 16742688
106.09012405122071 -24.61934612283989 -740 16742688
106.19213378588535 -23.522970700353014 -739.75 16742688
106.39615325521461 -22.445963987845303 -739.25 16742688
106.60017272454388 -21.36465353712171 -738.75 16742688
106.70218245920852 -20.259670638203083 -738.5 16742688
106.9062019285378 -19.17082864560171 -738 16742688
107.00821166320243 -18.060466073913236 -737.75 16742688
107.11022139786706 -16.947951633116826 -737.5 16742688
107.11022139786706 -15.81822035144919 -737.5 16742688
107.11022139786706 -14.688489069781554 -737.5 16742688
107.2122311325317 -13.571670890769266 -737.25 16742688
107.2122311325317 -12.44086367454766 -737.25 16742688
107.31424086719633 -11.320817691873463 -737 16742688
107.5182603365256 -10.208305139084768 -736.5 16742688
107.62027007119023 -9.082879483640726 -736.25 16742688
107.72227980585487 -7.955301959088745 -736 16742688
107.92629927518415 -6.832030060760357 -735.5 16742688
107.92629927518415 -5.693691302660969 -735.5 16742688
108.02830900984878 -4.559658170785172 -735.25 16742688
108.02830900984878 -3.420243478131814 -735.25 16742688
107.92629927518415 -2.278675028362801 -735.5 16742688
107.92629927518415 -1.140336270263412 -735.5 16742688
107.92629927518415 -0.001997512164023281 -735.5 16742688
107.92629927518415 1.1363412459353657 -735.5 16742688
107.92629927518415 2.2746800040347543 -735.5 16742688
108.02830900984878 3.4162446777883346 -735.25 16742688
108.13031874451342 4.5599612206498525 -735 16742688
108.43634794850732 5.716585202143568 -734.25 16742688
108.64036741783659 6.873211071645001 -733.75 16742688
109.04840635649514 8.049199987102444 -732.75 16742688
109.35443556048904 9.225190790567606 -732 16742688
109.66046476448294 10.40763720135658 -731.25 16742688
109.86448423381222 11.585781761937398 -730.75 16742688
110.06850370314149 12.768230060734089 -730.25 16742688
110.06850370314149 13.92916344446683 -730.25 16742688
109.96649396847685 15.07611156700569 -730.5 16742688
109.45644529515367 16.1606630374452 -731.75 16742688
109.2524258258244 17.282866553250486 -732.25 16742688
109.04840635649514 18.400766330839893 -732.75 16742688
108.9463966218305 19.532651369623185 -733 16742688
108.9463966218305 20.681749473262265 -733 16742688
108.9463966218305 21.830847576901345 -733 16742688
109.04840635649514 23.001462483612094 -732.75 16742688
109.15041609115977 24.174229259430778 -732.5 16742688
109.15041609115977 25.3254792321778 -732.5 16742688
109.2524258258244 26.501473811658393 -732.25 16742688
109.35443556048904 27.679620260246924 -732 16742688
109.35443556048904 28.833022102101882 -732 16742688
109.45644529515367 30.01439635435232 -731.75 16742688
109.5584550298183 31.197922475710698 -731.5 16742688
109.66046476448294 32.383600466177015 -731.25 16742688
109.76247449914757 33.57143032575127 -731 16742688
109.86448423381222 34.76141205443346 -730.75 16742688
109.86448423381222 35.92019356905826 -730.75 16742688
109.86448423381222 37.07897508368307 -730.75 16742688
109.86448423381222 38.23775659830787 -730.75 16742688
109.86448423381222 39.396538112932674 -730.75 16742688
109.86448423381222 40.55531962755747 -730.75 16742688
109.86448423381222 41.71410114218228 -730.75 16742688
109.96649396847685 42.91269034729623 -730.5 16742688
110.06850370314149 44.11343142151811 -730.25 16742688
110.17051343780612 45.31632436484793 -730 16742688
110.37453290713539 46.56440467143675 -729.5 16742688
110.57855237646466 47.81678871624143 -729 16742688
110.78257184579392 49.073476499262 -728.5 16742688
110.88458158045857 50.288204722685485 -728.25 16742688
110.9865913151232 51.505084815216904 -728 16742688
110.9865913151232 52.67570160993537 -728 16742688
110.9865913151232 53.846318404653836 -728 16742688
110.88458158045857 54.96636816334346 -728.25 16742688
110.78257184579392 56.08426605292515 -728.5 16742688
110.68056211112929 57.20001207339891 -728.75 16742688
110.57855237646466 58.31360622476472 -729 16742688
110.57855237646466 59.47991928126731 -729 16742688
110.47654264180002 60.590285628971216 -729.25 16742688
110.47654264180002 61.75552275091984 -729.25 16742688
110.47654264180002 62.92075987286845 -729.25 16742688
110.47654264180002 64.08599699481707 -729.25 16742688
110.47654264180002 65.25123411676569 -729.25 16742688
110.47654264180002 66.41647123871431 -729.25 16742688
110.37453290713539 67.51930604454043 -729.5 16742688
110.37453290713539 68.68346723193508 -729.5 16742688
110.27252317247076 69.78307423409929 -729.75 16742688
110.27252317247076 70.94615948693998 -729.75 16742688
110.27252317247076 72.10924473978065 -729.75 16742688
110.27252317247076 73.27232999262134 -729.75 16742688
110.27252317247076 74.43541524546201 -729.75 16742688
110.27252317247076 75.5985004983027 -729.75 16742688
110.27252317247076 76.76158575114337 -729.75 16742688
110.27252317247076 77.92467100398406 -729.75 16742688
110.27252317247076 79.08775625682473 -729.75 16742688
110.27252317247076 80.25084150966542 -729.75 16742688
110.37453290713539 81.48924029327623 -729.5 16742688
110.47654264180002 82.72979094599496 -729.25 16742688
110.68056211112929 84.04995886769971 -728.75 16742688
110.78257184579392 85.2958891931883 -728.5 16742688
110.78257184579392 86.46435411879882 -728.5 16742688
110.68056211112929 87.55212584086938 -728.75 16742688
110.47654264180002 88.55597655573806 -729.25 16742688
110.17051343780612 89.47267845974295 -730 16742688
109.86448423381222 90.38292475642402 -730.75 16742688
109.5584550298183 91.28671544578127 -731.5 16742688
109.45644529515367 92.35619628043435 -731.75 16742688
109.35443556048904 93.42352524597949 -732 16742688
109.45644529515367 94.66515183325221 -731.75 16742688
109.5584550298183 95.90893028963286 -731.5 16742688
109.66046476448294 97.15486061512145 -731.25 16742688
109.76247449914757 98.40294280971797 -731 16742688
109.86448423381222 99.65317687342244 -730.75 16742688
109.86448423381222 100.81195838804724 -730.75 16742688
109.76247449914757 101.87605954993047 -731 16742688
109.5584550298183 102.84225255541023 -731.5 16742688
109.35443556048904 103.80414182267411 -732 16742688
108.9463966218305 104.56591103891515 -733 16742688
105.58007537789753 109.13008772110705 -741.25 16742688
105.4780656432329 110.1371643516299 -741.5 16742688
105.4780656432329 111.24968068043404 -741.5 16742688
105.58007537789753 112.47086451118133 -741.25 16742688
105.68208511256216 113.69420021103657 -741 16742688
105.88610458189143 115.03050715105086 -740.5 16742688
106.09012405122071 116.37111782928102 -740 16742688
106.29414352054998 117.71603224572706 -739.5 16742688
106.49816298987925 119.06525040038898 -739 16742688
106.70218245920852 120.41877229326677 -738.5 16742688
106.9062019285378 121.77659792436043 -738 16742688
106.9062019285378 122.90417733692013 -738 16742688
106.80419219387315 125.03990931455667 -738.25 16742688
106.60017272454388 125.92540722848872 -738.75 16742688
106.39615325521461 126.80660140420491 -739.25 16742688
106.19213378588535 127.68349184170523 -739.75 16742688
105.98811431655608 128.55607854098966 -740.25 16742688
37.627556970241784 -48.3047709232627 -908.75 13086720
37.52446777306304 -47.780788907471994 -909 13086720
37.42137857588429 -47.25895876078923 -909.25 13086720
37.215200181526804 -46.61016644873038 -909.75 13086720
37.11211098434806 -46.09371597481746 -910 13086720
37.11211098434806 -45.70637953538856 -910 13086720
37.00902178716932 -45.193156865137546 -910.25 13086720
37.00902178716932 -44.806896360262606 -910.25 13086720
36.90593258999057 -44.2969014936735 -910.5 13086720
36.90593258999057 -43.911716923352536 -910.5 13086720
36.90593258999057 -43.52653235303157 -910.5 13086720
36.90593258999057 -43.141347782710604 -910.5 13086720
36.90593258999057 -42.75616321238964 -910.5 13086720
36.90593258999057 -42.37097864206868 -910.5 13086720
36.90593258999057 -41.98579407174771 -910.5 13086720
36.80284339281182 -41.48440668159036 -910.75 13086720
36.80284339281182 -41.10029804582336 -910.75 13086720
36.80284339281182 -40.716189410056366 -910.75 13086720
36.80284339281182 -40.332080774289366 -910.75 13086720
36.80284339281182 -39.947972138522374 -910.75 13086720
36.80284339281182 -39.563863502755375 -910.75 13086720
36.90593258999057 -39.289502079500956 -910.5 13086720
36.90593258999057 -38.90431750917999 -910.5 13086720
36.90593258999057 -38.51913293885902 -910.5 13086720
37.00902178716932 -38.24046777738872 -910.25 13086720
37.00902178716932 -37.85420727251379 -910.25 13086720
37.00902178716932 -37.46794676763886 -910.25 13086720
37.00902178716932 -37.08168626276392 -910.25 13086720
37.00902178716932 -36.695425757888984 -910.25 13086720
37.00902178716932 -36.30916525301405 -910.25 13086720
37.00902178716932 -35.92290474813912 -910.25 13086720
37.00902178716932 -35.536644243264185 -910.25 13086720
37.00902178716932 -35.150383738389245 -910.25 13086720
36.90593258999057 -34.66728723564937 -910.5 13086720
36.90593258999057 -34.2821026653284 -910.5 13086720
36.90593258999057 -33.89691809500744 -910.5 13086720
36.90593258999057 -33.51173352468648 -910.5 13086720
37.00902178716932 -33.21908121401457 -910.25 13086720
36.90593258999057 -32.741364384044545 -910.5 13086720
36.90593258999057 -32.35617981372358 -910.5 13086720
36.90593258999057 -31.970995243402612 -910.5 13086720
36.90593258999057 -31.58581067308165 -910.5 13086720
36.90593258999057 -31.200626102760683 -910.5 13086720
36.80284339281182 -30.729364880114467 -910.75 13086720
36.80284339281182 -30.34525624434747 -910.75 13086720
36.80284339281182 -29.961147608580475 -910.75 13086720
36.80284339281182 -29.57703897281348 -910.75 13086720
36.80284339281182 -29.192930337046484 -910.75 13086720
36.80284339281182 -28.808821701279488 -910.75 13086720
36.80284339281182 -28.424713065512492 -910.75 13086720
36.80284339281182 -28.040604429745493 -910.75 13086720
36.80284339281182 -27.656495793978497 -910.75 13086720
36.90593258999057 -27.348780399551032 -910.5 13086720
36.90593258999057 -26.963595829230066 -910.5 13086720
37.31828937870555 -26.485888439298616 -909.5 13086720
37.730646167420524 -26.38475814325638 -908.5 13086720
38.349181350493 -26.417047507921755 -907 13086720
39.483162519459185 -26.786113828018063 -904.25 15442616
41.02950047714035 -27.406956385774023 -900.5 15442616
43.297462815072734 -28.470021261265334 -895 15442616
46.18396033607758 -29.886003998504833 -888 15442616
49.89517143451239 -31.766805567120745 -879 15442616
54.431096110377155 -34.086603537817815 -868 16720000
59.48246677213564 -36.629129401225086 -855.75 16720000
65.04928341978786 -39.378244139033015 -842.25 16720000
70.7191892646188 -42.07248810259624 -828.5 16727648
76.18291671509226 -44.52787081916288 -815.25 16727648
81.23428737685076 -46.632491319104695 -803 16727648
85.66712285553677 -48.283056109225214 -792.25 16735088
89.37833395397158 -49.44190559212781 -783.25 16735088
92.36792067215517 -50.131634393445836 -776 16735088
94.7389722072663 -50.429711689072775 -770.25 16735088
96.5945777564837 -50.40930291668626 -765.75 16735088
98.03782651698613 -50.139269775748026 -762.25 16735088
99.27489688313106 -49.73581697410218 -759.25 16735088
100.20269965773976 -49.15482930702827 -757 16742688
100.82123484081222 -48.405990185512024 -755.5 16742688
101.43977002388469 -47.644239849348146 -754 16742688
101.85212681259968 -46.77489228177192 -753 16742688
102.1613944041359 -45.85067016393554 -752.25 16742688
102.47066199567215 -44.91999243877535 -751.5 16742688
102.67684039002962 -43.9387439015709 -751 16742688
102.98610798156587 -42.99623089631705 -750.25 16742688
103.2953755731021 -42.047262283739386 -749.5 16742688
103.60464316463833 -41.091838063837905 -748.75 16742688
104.0169999533533 -40.16976970311719 -747.75 16742688
104.32626754488955 -39.200358334014105 -747 16742688
104.53244593924704 -38.18683176019058 -746.5 16742688
104.84171353078327 -37.20558511099384 -745.75 16742688
105.04789192514076 -36.18237512618458 -745.25 16742688
105.25407031949824 -35.15486140315945 -744.75 16742688
105.46024871385573 -34.123043941918446 -744.25 16742688
105.66642710821323 -33.08692274246156 -743.75 16742688
105.87260550257072 -32.0464978047888 -743.25 16742688
106.18187309410695 -31.03189718441902 -742.5 16742688
106.38805148846444 -29.981788835760536 -742 16742688
106.69731908000067 -28.95535293529709 -741.25 16742688
107.00658667153691 -27.92246142750983 -740.5 16742688
107.21276506589439 -26.857289995095776 -740 16742688
107.41894346025188 -25.787814824465848 -739.5 16742688
107.52203265743063 -24.690363467425005 -739.25 16742688
107.62512185460938 -23.59076024127622 -739 16742688
107.62512185460938 -22.467484566932402 -739 16742688
107.62512185460938 -21.344208892588583 -739 16742688
107.62512185460938 -20.220933218244763 -739 16742688
107.52203265743063 -19.07936476847575 -739.25 16742688
107.31585426307313 -17.92273134694345 -739.75 16742688
107.21276506589439 -16.786542569944285 -740 16742688
107.21276506589439 -15.66757063381634 -740 16742688
107.21276506589439 -14.548598697688396 -740 16742688
107.31585426307313 -13.4425398642158 -739.75 16742688
107.52203265743063 -12.34616632973664 -739.25 16742688
107.83130024896685 -11.256250290589014 -738.5 16742688
108.1405678405031 -10.159878644117573 -737.75 16742688
108.44983543203934 -9.057051390322316 -737 16742688
108.75910302357556 -7.947768529203244 -736.25 16742688
108.96528141793306 -6.825572565428826 -735.75 16742688
109.0683706151118 -5.693691302660969 -735.5 16742688
109.0683706151118 -4.555352544561579 -735.5 16742688
109.0683706151118 -3.41701378646219 -735.5 16742688
108.86219222075431 -2.2743675141314914 -736 16742688
108.75910302357556 -1.1371028025783552 -736.25 16742688
108.55292462921807 -0.00198807212544094 -736.75 16742688
108.44983543203934 1.1298969666578493 -737 16742688
108.44983543203934 2.261780117433423 -737 16742688
108.55292462921807 3.396889183863188 -736.75 16742688
108.75910302357556 4.538451969609052 -736.25 16742688
109.17145981229054 5.695074063095051 -735.25 16742688
109.58381660100552 6.860303633012803 -734.25 16742688
109.9961733897205 8.03414067936231 -733.25 16742688
110.51161937561422 9.225190790567606 -732 16742688
110.9239761643292 10.417318724334587 -731 16742688
111.23324375586543 11.607296677001347 -730.25 16742688
111.43942215022292 12.791896844905978 -729.75 16742688
111.43942215022292 13.954982097746658 -729.75 16742688
111.23324375586543 15.090096828199572 -730.25 16742688
110.71779776997171 16.175724233193055 -731.5 16742688
110.40853017843548 17.282866553250486 -732.25 16742688
110.20235178407799 18.400766330839893 -732.75 16742688
110.09926258689924 19.532651369623185 -733 16742688
110.20235178407799 20.701114407225994 -732.75 16742688
110.40853017843548 21.89217018245444 -732.25 16742688
110.71779776997171 23.10904649897043 -731.5 16742688
111.02706536150795 24.332378422810233 -730.75 16742688
111.23324375586543 25.538497281794246 -730.25 16742688
111.43942215022292 26.748919878994137 -729.75 16742688
111.54251134740167 27.93782567312236 -729.5 16742688
111.54251134740167 29.101986860517012 -729.5 16742688
111.54251134740167 30.26614804791166 -729.5 16742688
111.43942215022292 31.40126089035686 -729.75 16742688
111.33633295304418 32.534221863694114 -730 16742688
111.33633295304418 33.69623118198083 -730 16742688
111.33633295304418 34.858240500267534 -730 16742688
111.33633295304418 36.02024981855425 -730 16742688
111.33633295304418 37.182259136840955 -730 16742688
111.33633295304418 38.34426845512767 -730 16742688
111.33633295304418 39.50627777341438 -730 16742688
111.43942215022292 40.705942913082296 -729.75 16742688
111.43942215022292 41.86902816592298 -729.75 16742688
111.54251134740167 43.0719211092528 -729.5 16742688
111.64560054458042 44.27696592169056 -729.25 16742688
111.74868974175915 45.48416260323626 -729 16742688
111.8517789389379 46.693511153889894 -728.75 16742688
111.95486813611664 47.90501157365147 -728.5 16742688
112.05795733329539 49.11866386252099 -728.25 16742688
112.05795733329539 50.288204722685485 -728.25 16742688
112.05795733329539 51.45774558284998 -728.25 16742688
111.95486813611664 52.57887127609358 -728.5 16742688
111.95486813611664 53.7473362017041 -728.5 16742688
111.8517789389379 54.86523409128579 -728.75 16742688
111.8517789389379 56.03262308234235 -728.75 16742688
111.95486813611664 57.25273097853568 -728.5 16742688
111.95486813611664 58.42119590414621 -728.5 16742688
112.05795733329539 59.64453160400144 -728.25 16742688
112.26413572765289 60.925965881763304 -727.75 16742688
112.36722492483162 62.154681254388386 -727.5 16742688
112.36722492483162 63.32744991821479 -727.5 16742688
112.36722492483162 64.50021858204119 -727.5 16742688
112.36722492483162 65.67298724586759 -727.5 16742688
112.26413572765289 66.78442952812547 -727.75 16742688
112.16104653047414 67.8937199412754 -728 16742688
112.16104653047414 69.06433673599386 -728 16742688
112.05795733329539 70.1703993454819 -728.25 16742688
112.05795733329539 71.3399402056464 -728.25 16742688
112.16104653047414 72.57618712014926 -728 16742688
112.26413572765289 73.81458590376006 -727.75 16742688
112.26413572765289 74.9862786330325 -727.75 16742688
112.36722492483162 76.22790522030522 -727.5 16742688
112.36722492483162 77.40067388413162 -727.5 16742688
112.26413572765289 78.50135682084981 -727.75 16742688
112.05795733329539 79.52672622679786 -728.25 16742688
111.95486813611664 80.6220294907462 -728.5 16742688
111.74868974175915 81.63986735481647 -729 16742688
111.64560054458042 82.72979094599496 -729.25 16742688
111.54251134740167 83.81756266806552 -729.5 16742688
111.54251134740167 84.98172385546017 -729.5 16742688
111.54251134740167 86.14588504285481 -729.5 16742688
111.64560054458042 87.39073943378943 -729.25 16742688
111.64560054458042 88.55597655573806 -729.25 16742688
111.54251134740167 89.63836860503876 -729.5 16742688
111.54251134740167 90.80252979243342 -729.5 16742688
111.43942215022292 91.88169403807221 -729.75 16742688
111.33633295304418 94.12071573288979 -730 16742688
111.23324375586543 95.19450030575874 -730.25 16742688
111.13015455868668 96.26613300951976 -730.5 16742688
111.02706536150795 97.33561384417284 -730.75 16742688
110.9239761643292 98.40294280971797 -731 16742688
110.71779776997171 99.37559142252155 -731.5 16742688
110.51161937561422 100.34393629710924 -732 16742688
110.30544098125674 101.30797743348106 -732.5 16742688
109.9961733897205 102.17195854434145 -733.25 16742688
109.58381660100552 102.93265182602852 -734.25 16742688
109.0683706151118 103.58682947488036 -735.5 16742688
108.55292462921807 104.23024777819252 -736.75 16742688
106.2849622912857 107.59904040283978 -742.25 16742688
106.2849622912857 108.708328927982 -742.25 16742688
106.38805148846444 109.92413308595944 -742 16742688
106.59422988282192 111.24968068043404 -741.5 16742688
106.90349747435816 112.68819951506768 -740.75 16742688
107.10967586871566 114.023430520528 -740.25 16742688
107.31585426307313 115.36296526420419 -739.75 16742688
107.41894346025188 116.59490844049118 -739.5 16742688
107.62512185460938 117.94197472604516 -739 16742688
107.62512185460938 119.06525040038898 -739 16742688
107.72821105178812 120.30364918399978 -738.75 16742688
107.72821105178812 121.42800079289756 -738.75 16742688
107.52203265743063 122.31780244504552 -739.25 16742688
107.21276506589439 123.08494944604868 -740 16742688
106.69731908000067 123.60678714476232 -741.25 16742688
105.87260550257072 123.75635715182577 -743.25 16742688
104.84171353078327 123.64555477284411 -745.75 16742688
103.60464316463833 123.26792440049353 -748.75 16742688
102.47066199567215 122.98820218454641 -751.5 16742688
36.56319955219172 -46.45198518921975 -912.25 13086720
36.77153687157743 -46.336863967960475 -911.75 13086720
36.875705531270285 -46.08724903944734 -911.5 13086720
37.08404285065599 -45.964596276310296 -911 13086720
37.18821151034884 -45.709601675027315 -910.75 13086720
37.18821151034884 -45.325493039260316 -910.75 13086720
37.2923801700417 -45.067270634315435 -910.5 13086720
37.396548829734556 -44.806896360262606 -910.25 13086720
37.396548829734556 -44.42063585538767 -910.25 13086720
37.396548829734556 -44.03437535051274 -910.25 13086720
37.396548829734556 -43.64811484563781 -910.25 13086720
37.396548829734556 -43.26185434076287 -910.25 13086720
37.50071748942741 -42.99502445938623 -910 13086720
37.396548829734556 -42.489333331013 -910.25 13086720
37.396548829734556 -42.10307282613807 -910.25 13086720
37.396548829734556 -41.716812321263134 -910.25 13086720
37.396548829734556 -41.3305518163882 -910.25 13086720
37.396548829734556 -40.94429131151326 -910.25 13086720
37.2923801700417 -40.44505579046385 -910.5 13086720
37.2923801700417 -40.05987122014288 -910.5 13086720
37.2923801700417 -39.67468664982192 -910.5 13086720
37.2923801700417 -39.289502079500956 -910.5 13086720
37.18821151034884 -38.79564623122138 -910.75 13086720
37.18821151034884 -38.41153759545439 -910.75 13086720
37.18821151034884 -38.02742895968739 -910.75 13086720
37.2923801700417 -37.74876379821709 -910.5 13086720
37.2923801700417 -37.363579227896125 -910.5 13086720
37.2923801700417 -36.97839465757516 -910.5 13086720
37.396548829734556 -36.695425757888984 -910.25 13086720
37.396548829734556 -36.30916525301405 -910.25 13086720
37.396548829734556 -35.92290474813912 -910.25 13086720
37.396548829734556 -35.536644243264185 -910.25 13086720
37.396548829734556 -35.150383738389245 -910.25 13086720
37.396548829734556 -34.76412323351431 -910.25 13086720
37.396548829734556 -34.37786272863938 -910.25 13086720
37.396548829734556 -33.991602223764446 -910.25 13086720
37.2923801700417 -33.51173352468648 -910.5 13086720
37.2923801700417 -33.12654895436551 -910.5 13086720
37.2923801700417 -32.741364384044545 -910.5 13086720
37.2923801700417 -32.35617981372358 -910.5 13086720
37.2923801700417 -31.970995243402612 -910.5 13086720
37.2923801700417 -31.58581067308165 -910.5 13086720
37.2923801700417 -31.200626102760683 -910.5 13086720
37.2923801700417 -30.815441532439717 -910.5 13086720
37.2923801700417 -30.43025696211875 -910.5 13086720
37.2923801700417 -30.045072391797788 -910.5 13086720
37.2923801700417 -29.659887821476822 -910.5 13086720
37.2923801700417 -29.274703251155856 -910.5 13086720
37.2923801700417 -28.88951868083489 -910.5 13086720
37.2923801700417 -28.504334110513927 -910.5 13086720
37.2923801700417 -28.11914954019296 -910.5 13086720
37.2923801700417 -27.733964969871995 -910.5 13086720
37.2923801700417 -27.348780399551032 -910.5 13086720
37.396548829734556 -27.038913136015623 -910.25 13086720
37.396548829734556 -26.65265263114069 -910.25 13086720
37.60488614912026 -26.412723001620996 -909.75 13086720
38.02156078789168 -26.312668640132728 -908.75 13086720
38.646572746048804 -26.346033939352072 -907.25 13086720
39.68825934297734 -26.646238559986635 -904.75 15442616
41.14662057867729 -27.200371287388794 -901.25 15442616
43.22999377253437 -28.131092436726462 -896.25 15442616
46.14671624393428 -29.552454846735806 -889.25 15442616
49.68845067349132 -31.30736829652189 -880.75 15442616
54.06353438059118 -33.505581886605015 -870.25 15442616
59.167798705541024 -36.05779116099801 -858 16720000
64.68873766926228 -38.75418321765373 -844.75 16720000
70.41801395236924 -41.459186526756646 -831 16727648
76.04312157578336 -43.98558281189296 -817.5 16727648
81.25155456042604 -46.159065011296526 -805 16727648
85.93914424660447 -47.93444198569291 -793.75 16735088
89.89755331493292 -49.21379991465548 -784.25 16735088
93.02261310571855 -49.963782939003494 -776.75 16735088
95.62682959803989 -50.37483713881263 -770.5 16735088
97.50186547251126 -50.35550430098008 -766 16735088
98.96022670821121 -50.086547094595815 -762.5 16735088
100.10608196483261 -49.632523480905704 -759.75 16735088
100.93943124237543 -49.00311687089547 -757.75 16735088
101.56444320053257 -48.25750555304113 -756.25 16742688
102.08528649899684 -47.45056407760283 -755 16742688
102.39779247807539 -46.53817723986012 -754.25 16742688
102.71029845715395 -45.61933479479359 -753.5 16742688
103.02280443623252 -44.69403674240325 -752.75 16742688
103.43947907500393 -43.80639828740954 -751.75 16742688
103.7519850540825 -42.8671130858176 -751 16742688
104.16865969285391 -41.963335612514356 -750 16742688
104.58533433162532 -41.05095066277936 -749 16742688
105.00200897039674 -40.12995823661261 -748 16742688
105.41868360916816 -39.200358334014105 -747 16742688
105.73118958824672 -38.22449135758721 -746.25 16742688
106.04369556732529 -37.242168773836504 -745.5 16742688
106.25203288671099 -36.21788285447328 -745 16742688
106.56453886578954 -35.22372499062891 -744.25 16742688
106.77287618517526 -34.189755660279964 -743.75 16742688
107.08538216425382 -33.183762516341936 -743 16742688
107.29371948363952 -32.14010977500727 -742.5 16742688
107.60622546271809 -31.12228135097558 -741.75 16742688
107.91873144179665 -30.09799731962007 -741 16742688
108.33540608056806 -29.095233867351666 -740 16742688
108.64791205964663 -28.05696268679456 -739.25 16742688
109.06458669841804 -27.038060216216614 -738.25 16742688
109.3770926774966 -25.98580188645791 -737.5 16742688
109.58542999688231 -24.90341550118035 -737 16742688
109.79376731626802 -23.816725377686915 -736.5 16742688
109.89793597596088 -22.7042109368905 -736.25 16742688
109.79376731626802 -21.54865533791989 -736.5 16742688
109.58542999688231 -20.375882898078054 -737 16742688
109.27292401780375 -19.189121421026904 -737.75 16742688
108.9604180387252 -18.008815551299566 -738.5 16742688
108.64791205964663 -16.834965288896047 -739.25 16742688
108.43957474026092 -15.682635605579625 -739.75 16742688
108.33540608056806 -14.548598697688396 -740 16742688
108.43957474026092 -13.4425398642158 -739.75 16742688
108.64791205964663 -12.34616632973664 -739.25 16742688
108.9604180387252 -11.256250290589014 -738.5 16742688
109.3770926774966 -10.169563943111012 -737.5 16742688
109.79376731626802 -9.074270119201255 -736.5 16742688
110.10627329534658 -7.962835388974246 -735.75 16742688
110.31461061473229 -6.838487556091889 -735.25 16742688
110.522947934118 -5.7098359849936555 -734.75 16742688
110.522947934118 -4.568269423232358 -734.75 16742688
110.522947934118 -3.4267028614710617 -734.75 16742688
110.41877927442515 -2.2829825425941106 -735 16742688
110.31461061473229 -1.1414140928250978 -735.25 16742688
110.21044195503944 -0.001997512164023281 -735.5 16742688
110.10627329534658 1.135267199389113 -735.75 16742688
110.10627329534658 2.2725300229345327 -735.75 16742688
110.21044195503944 3.4130187621341435 -735.5 16742688
110.41877927442515 4.5599612206498525 -735 16742688
110.62711659381085 5.711207417381439 -734.5 16742688
110.93962257288942 6.873211071645001 -733.75 16742688
111.25212855196797 8.041670333232377 -733 16742688
111.46046587135369 9.207979613719532 -732.5 16742688
111.77297185043224 10.38827415540057 -731.75 16742688
111.8771405101251 11.553509389341471 -731.5 16742688
111.98130916981795 12.720896492390311 -731.25 16742688
111.8771405101251 13.864616811267263 -731.5 16742688
111.6688031907394 14.992199999842393 -732 16742688
111.25212855196797 16.08535705870594 -733 16742688
111.14795989227513 17.2183180320432 -733.25 16742688
111.04379123258227 18.34912713627252 -733.5 16742688
111.14795989227513 19.514362370213423 -733.25 16742688
111.35629721166083 20.701114407225994 -732.75 16742688
111.6688031907394 21.91261105097214 -732 16742688
111.98130916981795 23.130563302042095 -731.25 16742688
112.39798380858937 24.377563898061506 -730.25 16742688
112.71048978766792 25.609503298333063 -729.5 16742688
113.02299576674649 26.847898305928435 -728.75 16742688
113.2313330861322 28.066928379560082 -728.25 16742688
113.33550174582506 29.26336571556609 -728 16742688
113.33550174582506 30.433982510284554 -728 16742688
113.2313330861322 31.575550960053565 -728.25 16742688
113.12716442643935 32.71496754071464 -728.5 16742688
113.02299576674649 33.852232252267775 -728.75 16742688
112.81465844736078 34.95506894610161 -729.25 16742688
112.71048978766792 36.0869539848849 -729.5 16742688
112.50215246828222 37.182259136840955 -730 16742688
112.39798380858937 38.3087645028544 -730.25 16742688
112.39798380858937 39.46969788658714 -730.25 16742688
112.29381514889651 40.59297544893868 -730.5 16742688
112.29381514889651 41.752832898117454 -730.5 16742688
112.39798380858937 42.95249803778537 -730.25 16742688
112.50215246828222 44.15431504656122 -730 16742688
112.71048978766792 45.40024348404209 -729.5 16742688
113.02299576674649 46.693511153889894 -728.75 16742688
113.2313330861322 47.949123002356494 -728.25 16742688
113.4396704055179 49.20903858903897 -727.75 16742688
113.54383906521076 50.42699461612436 -727.5 16742688
113.64800772490362 51.64710251231769 -727.25 16742688
113.75217638459647 52.869362277618954 -727 16742688
113.75217638459647 54.0442828105533 -727 16742688
113.75217638459647 55.219203343487635 -727 16742688
113.75217638459647 56.39412387642198 -727 16742688
113.75217638459647 57.56904440935632 -727 16742688
113.85634504428933 58.797759781981405 -726.75 16742688
113.96051370398217 60.02862702371443 -726.5 16742688
114.06468236367503 61.261646134555384 -726.25 16742688
114.06468236367503 62.439794471151636 -726.25 16742688
114.06468236367503 63.61794280774788 -726.25 16742688
113.96051370398217 64.73691663188355 -726.5 16742688
113.85634504428933 65.85373858691126 -726.75 16742688
113.64800772490362 66.90708229126253 -727.25 16742688
113.4396704055179 67.9561222573979 -727.75 16742688
113.2313330861322 69.00085848531741 -728.25 16742688
113.12716442643935 70.10584516025146 -728.5 16742688
113.12716442643935 71.274310085862 -728.5 16742688
113.33550174582506 72.57618712014926 -728 16742688
