VERSION 0.7 
FIELDS x y z rgb 
SIZE 4 4 4 4 
TYPE F F F U 
COUNT 1 1 1 1 
WIDTH 878 
HEIGHT 1 
VIEWPOINT 0 0 0 1 0 0 0 
POINTS 878 
DATA ascii 
-153.00869446967846 -153.32783989852172 -621 16742280
-152.80683603370264 -151.49659551165075 -621.5 16742280
-152.60497759772682 -149.66965486299566 -622 16742280
-152.403119161751 -147.84701795255646 -622.5 16742280
-152.20126072577514 -146.0286847803331 -623 16742280
-152.10033150778725 -144.31041540963662 -623.25 16742280
-152.30218994376307 -142.87835029431906 -622.75 16742280
-153.00869446967846 -141.91002241180084 -621 16742280
-154.01798664955763 -141.2042282244742 -618.5 16742280
-154.72449117547302 -140.20254637078293 -616.75 16742280
-155.02727882943677 -138.82427987117154 -616 16742280
-154.72449117547302 -136.90373102831342 -616.75 16742280
-154.11891586754552 -134.72495222847954 -618.25 16742280
-153.41241134163013 -132.47193205641406 -620 16742280
-152.10033150778725 -129.71751505415267 -623.25 16742280
-151.69661463583557 -127.75607881023599 -624.25 16742280
-151.69661463583557 -126.13894917562031 -624.25 16742280
-151.99940228979932 -124.77036608699467 -623.5 16742280
-152.20126072577514 -123.31355447693585 -623 16742280
-151.99940228979932 -121.52965121043951 -623.5 16742280
-151.39382698187183 -119.43156750215333 -625 16742280
-150.68732245595643 -117.2678498980673 -626.75 16742280
-150.18267636601686 -115.27413372952383 -628 16742280
-150.2836055840048 -113.74953635455722 -627.75 16742280
-150.4854640199806 -112.29810441726823 -627.25 16742280
-150.3845348019927 -110.6196446250686 -627.5 16742280
-149.87988871205312 -108.65067495126642 -628.75 16742280
-149.0724549681498 -106.47619611363298 -630.75 16742280
-148.56780887821023 -104.5319729345721 -632 16742280
-148.56780887821023 -102.94819727112947 -632 16742280
-149.0724549681498 -101.70873010499557 -630.75 16742280
-149.98081793004104 -100.72964665295306 -628.5 16742280
-150.3845348019927 -99.39764722717008 -627.5 16742280
-150.68732245595643 -97.99140642915552 -626.75 16742280
-150.68732245595643 -96.38503614007954 -626.75 16742280
-150.3845348019927 -94.58821977092786 -627.5 16742280
-149.7789594940652 -92.6106407326862 -629 16742280
-149.0724549681498 -90.58464275150824 -630.75 16742280
-148.16409200625856 -88.45319940802585 -633 16742280
-147.5585166983311 -86.51865775194297 -634.5 16742280
-147.25572904436734 -84.77133437227388 -635.25 16742280
-147.15479982637942 -83.14451943866477 -635.5 16742280
-147.35665826235527 -81.68770782860594 -635 16742280
-147.86130435229484 -80.39121613111166 -633.75 16742280
-148.3659504422344 -79.08396508807769 -632.5 16742280
-148.4668796602223 -77.5550639748952 -632.25 16742280
-148.26502122424648 -75.86907075281007 -632.75 16742280
-147.5585166983311 -73.93452720871947 -634.5 16742280
-146.85201217241567 -72.01504674838445 -636.25 16742280
-146.14550764650028 -70.11062937180499 -638 16742280
-145.6408615565607 -68.31596109574582 -639.25 16742280
-145.13621546662114 -66.53205216522635 -640.5 16732080
-144.93435703064532 -64.89447599806982 -641 16732080
-144.93435703064532 -63.34943397857009 -641 16732080
-144.8334278126574 -61.76135268890387 -641.25 16732080
-144.53064015869364 -60.09149659712056 -642 16732080
-144.126923286742 -58.38720871160252 -643 16732080
-143.82413563277825 -56.731339769020806 -643.75 16732080
-143.82413563277825 -55.19813302961473 -643.75 16732080
-143.92506485076615 -53.70258588760529 -643.5 16732080
-143.92506485076615 -52.168303213645245 -643.5 16732080
-143.72320641479033 -50.5630050831078 -644 16732080
-143.62227719680243 -48.99644248452096 -644.25 16732080
-143.5213479788145 -47.43203175504206 -644.5 16732080
-143.5213479788145 -45.90205281929789 -644.5 16732080
-143.72320641479033 -44.434481863699375 -644 16732080
-143.82413563277825 -42.93247911436612 -643.75 16732080
-143.72320641479033 -41.37022025399516 -644 16732080
-143.31948954283868 -39.72618470349939 -645 16732080
-142.915772670887 -38.090756629435376 -646 16732080
-142.915772670887 -36.56723330101502 -646 16732080
-142.915772670887 -35.04370997259466 -646 16732080
-142.8148434528991 -33.49651419597927 -646.25 16732080
-142.51205579893536 -31.90627726118968 -647 16732080
-142.1083389269837 -30.300975354636805 -648 16732080
-141.90648049100787 -28.74517021358194 -648.5 16732080
-141.80555127301994 -27.213037520722118 -648.75 16732080
-141.70462205503205 -25.68305669697023 -649 16732080
-141.30090518308037 -24.103577219712612 -650 16732080
-140.99811752911663 -22.548846125204005 -650.75 16732080
-140.7962590931408 -21.015635609782493 -651.25 16732080
-140.99811752911663 -19.542684981414123 -650.75 16732080
-141.4018344010683 -18.091256820140572 -649.75 16732080
-141.5027636190562 -16.595709678131133 -649.5 16732080
-141.09904674710455 -15.044204499276713 -650.5 16732080
-140.29161300320123 -13.462565600880291 -652.5 16732080
-139.38325004131 -11.889532290907907 -654.75 16732080
-138.77767473338253 -10.35846609256347 -656.25 16732080
-138.47488707941878 -8.859683594861258 -657 16732080
-138.57581629740667 -7.3888829475931095 -656.75 16732080
-138.87860395137042 -5.924541683664209 -656 16732080
-139.18139160533417 -4.453744812411493 -655.25 16732080
-139.38325004131 -2.9743385767193082 -654.75 16732080
-139.38325004131 -1.4884729576878755 -654.75 16732080
-138.97953316935835 -0.002599786625576614 -655.75 16732080
-138.27302864344296 1.4714437683662107 -657.5 16732080
-137.66745333551546 2.932574220702651 -659 16732080
-137.2637364635638 4.387245289699844 -660 16732080
-137.06187802758797 5.841912582681604 -660.5 16732080
-136.86001959161214 7.292276137447487 -661 16732080
-136.5572319376484 8.731882234681395 -661.75 16732080
-136.35537350167257 10.172562378461555 -662.25 16732080
-136.35537350167257 11.626149960873914 -662.25 16732080
-136.45630271966047 13.089419066264277 -662 16732080
-136.65816115563632 14.565597498294554 -661.5 16732080
-136.75909037362422 16.034246276454763 -661.25 16732080
-136.65816115563632 17.479228270443084 -661.5 16732080
-136.25444428368465 18.88010261174182 -662.5 16732080
-135.64886897575715 20.242247085113096 -664 16732080
-135.0432936678297 21.591480343836743 -665.5 16732080
-134.33678914191427 22.910589323056968 -667.25 16732080
-133.7312138339868 24.232924217931384 -668.75 16732080
-133.32749696203513 25.581077766085627 -669.75 16732080
-133.1256385260593 26.961505574843514 -670.25 16732080
-133.02470930807138 28.359146448457192 -670.5 16732080
-133.2265677440472 29.82241366583984 -670 16732080
-133.42842618002305 31.289984621438364 -669.5 16732080
-133.63028461599887 32.761859315252764 -669 16732080
-133.7312138339868 34.2122172059955 -668.75 16732080
-133.52935539801095 35.58403753832163 -669.25 16732080
-133.1256385260593 36.895609311640925 -670.25 16732080
-132.4191340001439 38.11142857368011 -672 16732080
-131.40984182026475 39.221811913453465 -674.5 16732080
-130.09776198642186 40.217075919975265 -677.75 16721880
-129.08846980654272 41.28119407392794 -680.25 16721880
-128.58382371660315 42.49055395262788 -681.5 16721880
-128.78568215257897 43.93015060982321 -681 16721880
-129.29032824251854 45.48056286205421 -679.75 16721880
-129.6940451144702 47.00515457299766 -678.75 16721880
-129.5931158964823 48.35007465346685 -679 16721880
-128.8866113705669 49.460452329217055 -680.75 16721880
-128.18010684465148 50.55576692121169 -682.5 16721880
-127.37267310074817 51.59513480440765 -684.5 16721880
-126.8680270108086 52.74316641353134 -685.75 16721880
-126.46431013885694 53.9234741712664 -686.75 16721880
-126.36338092086902 55.227508738684755 -687 16721880
-126.56523935684486 56.664953526772145 -686.5 16721880
-126.66616857483277 58.060438755262446 -686.25 16721880
-126.56523935684486 59.363397388126835 -686.5 16721880
-126.26245170288111 60.567373818041496 -687.25 16721880
-125.85873483092945 61.71540353915747 -688.25 16721880
-125.35408874098988 62.80425874781286 -689.5 16721880
-124.84944265105031 63.88235461092856 -690.75 16721880
-124.44572577909865 65.00241003364134 -691.75 16721880
-124.24386734312282 66.22144765930385 -692.25 16721880
-124.1429381251349 67.4910523209952 -692.5 16721880
-123.94107968915908 68.70255840477992 -693 16721880
-123.63829203519533 69.85273810699611 -693.75 16721880
-123.03271672726784 70.82216646816865 -695.25 16721880
-122.42714141934036 71.77868361469355 -696.75 16721880
-121.82156611141286 72.7222895465708 -698.25 16721880
-121.3169200214733 73.71431064536897 -699.5 16721880
-121.11506158549747 74.88277934699494 -700 16721880
-120.91320314952164 76.04694431040501 -700.5 16721880
-121.01413236750956 77.40046809129052 -700.25 16721880
-121.01413236750956 78.69051362149956 -700.25 16721880
-121.01413236750956 79.9805591517086 -700.25 16721880
-120.71134471354581 81.06725871524063 -701 16721880
-120.10576940561832 81.9409289011099 -702.5 16721880
-119.298335661715 82.66182015633098 -704.5 16721880
-118.59183113579961 83.4365062512428 -706.25 16721880
-117.8853266098842 84.19612926239905 -708 16721880
-117.27975130195672 85.01385085146192 -709.5 16721880
-116.4723175580534 85.67018603344485 -711.5 16711680
-115.66488381415009 86.30930626256428 -713.5 16711680
-114.55466241628302 86.70204314284791 -716.25 16711680
-113.44444101841596 87.07110946294422 -719 16711680
-112.03143196658516 87.18088121955711 -722.5 16711680
-110.2147060428027 86.94205773271484 -727 16711680
-107.89333402908066 86.26103458422983 -732.75 16711680
-104.56266983547948 84.71282706532283 -741 16711680
-100.32364267998707 82.34800221202268 -751.5 16711680
-95.37811099857926 79.30535180577594 -763.75 16711680
-89.62514557326813 75.47728427919346 -778 16711680
-83.26660484002952 71.01012295559957 -793.75 16711680
-76.40341801685132 65.97164982388664 -810.75 16711680
-69.54023119367314 60.786849592833896 -827.75 16711680
-63.48447811439826 56.17012770221515 -842.75 16711680
-58.63987565097836 52.50881303942843 -854.75 16711680
-55.10735302140135 49.933091797496296 -863.5 16711680
-52.58412257170348 48.20733997312265 -869.75 16711680
-50.868325865908936 47.17662676655136 -874 16711680
-49.65717525005396 46.58273354885297 -877 16711680
-48.74881228816273 46.25028676374594 -879.25 16711680
-47.941378544259415 45.99530537851698 -881.25 16711680
-47.33580323633193 45.918925353231465 -882.75 16711680
-46.62929871041653 45.730650022340875 -884.5 16711680
-46.02372340248904 45.62737163320613 -886 16711680
-45.62000653053738 45.713453949554534 -887 16711680
-45.21628965858572 45.79092878947118 -888 16711680
-44.913502004621975 45.9630839821294 -888.75 16711680
-44.711643568646146 46.2331473311911 -889.25 16711680
-44.408855914682405 46.39346724375565 -890 16711680
-44.206997478706576 46.65384718183162 -890.5 16711680
-43.904209824742836 46.80233181430252 -891.25 16711680
-43.702351388767006 47.053028341392775 -891.75 16711680
-43.50049295279118 47.29942113026715 -892.25 16711680
-43.29863451681535 47.54151018092564 -892.75 16711680
-43.09677608083952 47.77929549336827 -893.25 16711680
-42.89491764486369 48.01277706759501 -893.75 16711680
-42.69305920888786 48.24195490360588 -894.25 16711680
-42.49120077291203 48.46682900140087 -894.75 16711680
-42.39027155492411 48.80359840480094 -895 16711680
-42.2893423369362 49.138215939093065 -895.25 16711680
-42.08748390096037 49.352330691348364 -895.75 16711680
-42.08748390096037 49.800995400353514 -895.75 16711680
-41.986554682972454 50.12915732732183 -896 16711680
-41.88562546498454 50.45516738518221 -896.25 16711680
-41.784696246996624 50.779025573934646 -896.5 16711680
-41.68376702900871 51.100731893579145 -896.75 16711680
-157.26336487124325 -208.4383950798322 -606.25 16742280
-156.1650175610314 -205.29987321781923 -609 16742280
-155.06667025081956 -202.1850219159936 -611.75 16742280
-155.06667025081956 -200.51409555367945 -611.75 16742280
-154.1680224515553 -197.69082629199488 -614 16742280
-153.46907416323867 -195.1408481830339 -615.75 16742280
-152.96982538586963 -192.85770561947274 -617 16742280
-152.6702761194482 -190.83494299398754 -617.75 16742280
-152.3707268530268 -188.81863597582617 -618.5 16742280
-152.3707268530268 -187.1767598464692 -618.5 16742280
-152.77012587492203 -186.02121368753717 -617.5 16742280
-153.76862342966007 -185.58009940048697 -615 16742280
-154.76712098439813 -185.11746642235738 -612.5 16742280
-155.56591902818857 -184.39660537525975 -610.5 16742280
-155.76561853913617 -182.9548568489565 -610 16742280
-155.36621951724095 -180.81158766541904 -611 16742280
-154.26787220702911 -177.8710377613364 -613.75 16742280
-153.8684731851339 -175.75251507254023 -614.75 16742280
-153.06967514134342 -173.19069979547788 -616.75 16742280
-152.5704263639744 -170.98179671614056 -618 16742280
-152.3707268530268 -169.11612242354258 -618.5 16742280
-152.5704263639744 -167.69374071921078 -618 16742280
-152.6702761194482 -166.15838399870447 -617.75 16742280
-152.5704263639744 -164.40568472228097 -618 16742280
-152.4705766085006 -162.6551373149654 -618.25 16742280
-152.3707268530268 -160.90674177675777 -618.5 16742280
-152.3707268530268 -159.2648656474008 -618.5 16742280
-152.3707268530268 -157.62298951804385 -618.5 16742280
-152.17102734207919 -155.7766820474173 -619 16742280
-151.9713278311316 -153.93467831500664 -619.5 16742280
-151.77162832018396 -152.09697832081184 -620 16742280
-151.47207905376254 -150.16459419786005 -620.75 16742280
-151.07268003186732 -148.14075374981317 -621.75 16742280
-150.77313076544593 -146.22235677606298 -622.5 16742280
-150.6732810099721 -144.50193553625854 -622.75 16742280
-150.87298052091973 -143.06771855183308 -622.25 16742280
-151.37222929828874 -141.91002241180084 -621 16742280
-151.87147807565776 -140.74156692622887 -619.75 16742280
-151.9713278311316 -139.19652679473685 -619.5 16742280
-151.57192880923637 -137.19743284143127 -620.5 16742280
-151.17252978734115 -135.2069463645574 -621.5 16742280
-151.07268003186732 -133.4897529284149 -621.75 16742280
-151.37222929828874 -132.12332170889718 -621 16742280
-152.3707268530268 -131.35297144833243 -618.5 16742280
-152.3707268530268 -129.71109531897545 -618.5 16742280
-152.0711775866054 -127.81744483996657 -619.25 16742280
-151.47207905376254 -125.68170342229145 -620.75 16742280
-150.77313076544593 -123.4771003051546 -622.5 16742280
-150.07418247712928 -121.2875602717733 -624.25 16742280
-149.37523418881264 -119.11308332214757 -626 16742280
-148.97583516691742 -117.18930478761982 -627 16742280
-148.87598541144362 -115.50654125720432 -627.25 16742280
-148.97583516691742 -113.9787160785758 -627 16742280
-149.17553467786504 -112.52405633762491 -626.5 16742280
-149.27538443333884 -110.99085148622655 -626.25 16742280
-149.17553467786504 -109.30916389036501 -626.5 16742280
-148.87598541144362 -107.4854491573641 -627.25 16742280
-150.77313076544593 -107.23048854022002 -622.5 16742280
-150.87298052091973 -105.67576499774228 -622.25 16742280
-150.77313076544593 -103.98116618723311 -622.5 16742280
-150.5734312544983 -102.2209334809241 -623 16742280
-150.27388198807688 -100.39829468247717 -623.75 16742280
-149.9743327216555 -98.58211149135404 -624.5 16742280
-149.57493369976027 -96.70782594630887 -625.5 16742280
-149.17553467786504 -94.84214787769545 -626.5 16742280
-148.77613565596982 -92.98507728551378 -627.5 16742280
-148.4765863895484 -91.19794432734783 -628.25 16742280
-148.27688687860078 -89.47752119953569 -628.75 16742280
-147.97733761217938 -87.7022235214634 -629.5 16742280
-147.77763810123176 -85.99148380463697 -630 16742280
-147.57793859028416 -84.28504782602643 -630.5 16742280
-147.57793859028416 -82.69481655525998 -630.5 16742280
-147.67778834575796 -81.15945983475368 -630.25 16742280
-147.87748785670556 -79.67574986084561 -629.75 16742280
-147.97733761217938 -78.13501346756948 -629.5 16742280
-147.77763810123176 -76.43718496539068 -630 16742280
-147.07868981291512 -74.49080614120642 -631.75 16742280
-146.18004201365088 -72.46050064579714 -634 16742280
-145.28139421438664 -70.4495619723593 -636.25 16742280
-144.88199519249142 -68.69470516280471 -637.25 16742280
-144.98184494796521 -67.17979119882382 -637 16742280
-145.38124396986044 -65.79829878355827 -636 16742280
-145.78064299175566 -64.40819889186096 -635 16742280
-145.68079323628186 -62.794295172899474 -635.25 16742280
-144.98184494796521 -60.930763309370846 -637 16742280
-144.08319714870098 -59.00051972748069 -639.25 16742280
-143.48409861585813 -57.209077367075714 -640.75 16732080
-143.28439910491053 -55.585488349120794 -641.25 16732080
-143.28439910491053 -54.04152226417503 -641.25 16732080
-143.1845493494367 -52.46097251638659 -641.5 16732080
-142.9848498384891 -50.84706690941739 -642 16732080
-142.7851503275415 -49.23746504066407 -642.5 16732080
-142.5854508165939 -47.63216691012663 -643 16732080
-142.7851503275415 -46.16029221631223 -642.5 16732080
-143.0846995939629 -44.71531777435477 -641.75 16732080
-143.38424886038433 -43.2638877250735 -641 16732080
-143.38424886038433 -41.71884570557377 -641 16732080
-143.1845493494367 -40.1178513132522 -641.5 16732080
-142.9848498384891 -38.52116065914651 -642 16732080
-142.9848498384891 -36.980422377862645 -642 16732080
-142.8850000830153 -35.41493571382978 -642.25 16732080
-142.4856010611201 -33.780583574319735 -643.25 16732080
-141.98635228375105 -32.13224239760037 -644.5 16732080
-141.38725375090823 -30.473139987333603 -646 16732080
-140.78815521806538 -28.826948791714464 -647.5 16732080
-140.28890644069637 -27.213037520722118 -648.75 16732080
-139.78965766332735 -25.60988559526946 -650 16732080
-139.1905591304845 -24.000276174485276 -651.5 16732080
-138.79116010858928 -22.435859780983225 -652.5 16732080
-138.49161084216786 -20.895115835676215 -653.25 16732080
-138.59146059764169 -19.416783646530284 -653 16732080
-138.79116010858928 -17.94921269093176 -652.5 16732080
-139.0907093750107 -16.489175165218736 -651.75 16732080
-139.39025864143213 -15.022682032181896 -651 16732080
-139.49010839690592 -13.530362693834364 -650.75 16732080
-139.39025864143213 -12.018672757499955 -651 16732080
-138.8910098640631 -10.47900097073148 -652.25 16732080
-138.39176108669406 -8.950088529502699 -653.5 16732080
-137.89251230932504 -7.431935433813607 -654.75 16732080
-137.59296304290362 -5.933152936111395 -655.5 16732080
-137.49311328742982 -4.447285429072245 -655.75 16732080
-137.49311328742982 -2.965723548256689 -655.75 16732080
-137.49311328742982 -1.4841616674411329 -655.75 16732080
-137.39326353195602 -0.002597898617860146 -656 16732080
-137.0937142655346 1.4746659080049689 -656.75 16732080
-136.79416499911318 2.9454741073039825 -657.5 16732080
-136.69431524363938 4.416278530587563 -657.75 16732080
-136.69431524363938 5.889232934971367 -657.75 16732080
-136.69431524363938 7.362187339355169 -657.75 16732080
-136.79416499911318 8.841595463055071 -657.5 16732080
-136.79416499911318 10.315625801992843 -657.5 16732080
-136.69431524363938 11.781050552506578 -657.75 16732080
-136.49461573269176 13.23464191093437 -658.25 16732080
-136.89401475458698 14.748474276338134 -657.25 16732080
-137.0937142655346 16.247247334001763 -656.75 16732080
-136.89401475458698 17.698686823321616 -657.25 16732080
-136.09521671079654 19.061911007262296 -659.25 16732080
-135.1965689115323 20.392859042591617 -661.5 16732080
-134.49762062321565 21.736714516553132 -663.25 16732080
-133.79867233489904 23.06550690675908 -665 16732080
-133.0997240465824 24.37923621320946 -666.75 16732080
-132.50062551373955 25.697267369868 -668.25 16732080
-132.20107624731816 27.063709917432003 -669 16732080
-132.30092600279195 28.509764069958862 -668.75 16732080
-132.60047526921338 30.00315556684493 -668 16732080
-132.9998742911086 31.52667134323442 -667 16732080
-133.1995738020562 33.00930538258851 -666.5 16732080
-132.9998742911086 34.3929609950083 -667 16732080
-132.50062551373955 35.69162344168768 -668.25 16732080
-131.90152698089673 36.95155413243189 -669.75 16732080
-131.2025786925801 38.16952526357901 -671.5 16732080
-130.40378064878965 39.342309031467146 -673.5 16732080
-129.40528309405158 40.435477418377 -676 16721880
-128.60648505026114 41.571679411430175 -678 16721880
-128.20708602836592 42.82407478428116 -679 16721880
-128.10723627289212 44.171146733858286 -679.25 16721880
-128.30693578383975 45.622578671147274 -678.75 16721880
-128.40678553931355 47.0417344598249 -678.5 16721880
-128.30693578383975 48.387730474848055 -678.75 16721880
-128.20708602836592 49.731574620763276 -679 16721880
-127.90753676194451 50.993651516592266 -679.75 16721880
-127.6079874955231 52.24927280509745 -680.5 16721880
-127.10873871815407 53.414519367084644 -681.75 16721880
-126.60948994078505 54.56900658353216 -683 16721880
-126.11024116341602 55.712734454439975 -684.25 16721880
-125.91054165246841 56.98126506958506 -684.75 16721880
-125.81069189699461 58.29175524432724 -685 16721880
-125.7108421415208 59.60009354996147 -685.25 16721880
-125.7108421415208 60.954695153408665 -685.25 16721880
-125.51114263057319 62.21031455390613 -685.75 16721880
-125.11174360867797 63.360496144130046 -686.75 16721880
-124.41279532036134 64.3471413461738 -688.5 16721880
-123.7138470320447 65.31872346446198 -690.25 16721880
-123.21459825467566 66.38283217837608 -691.5 16721880
-122.61549972183283 67.38131077250577 -693 16721880
-122.21610069993761 68.47877156958519 -694 16721880
-121.7168519225686 69.51060224688023 -695.25 16721880
-121.21760314519956 70.53167357863555 -696.5 16721880
-120.61850461235673 71.4828110523906 -698 16721880
-119.9195563240401 72.36078686448347 -699.75 16721880
-119.42030754667107 73.34635235595782 -701 16721880
-119.32045779119727 74.57076776638246 -701.25 16721880
-119.81970656856629 76.17390081175795 -700 16721880
-120.41880510140912 77.85234738790356 -698.5 16721880
-120.71835436783054 79.34681481934359 -697.75 16721880
-120.31895534593532 80.38079547773884 -698.75 16721880
-119.32045779119727 80.99947672634828 -701.25 16721880
-118.2221104809854 81.52778136043203 -704 16721880
-117.42331243719497 82.24221700832929 -706 16721880
-116.82421390435213 83.08145728847155 -707.5 16721880
-116.2251153715093 83.90778635396617 -709 16721880
-115.52616708319266 84.64804254315099 -710.75 16721880
-114.52766952845461 85.15052285993175 -713.25 16711680
-113.42932221824276 85.55617095486302 -716 16711680
-112.3309749080309 85.93814848960696 -718.75 16711680
-111.13277784234523 86.2189900642855 -721.75 16711680
-109.53518175476435 86.15984387194067 -725.75 16711680
-107.33848713434064 85.5885641599528 -731.25 16711680
-104.34299447012648 84.3243976992705 -738.75 16711680
-100.44885400664808 82.2597529225046 -748.5 16711680
-95.55621598843162 79.28273452405 -760.75 16711680
-89.96462968189853 75.61282748889326 -774.75 16711680
-83.87379459799641 71.39743107491273 -790 16711680
-77.28371073672525 66.62040626379887 -806.5 16711680
-70.4939273645065 61.52706046983351 -823.5 16711680
-64.40309228060438 56.904960794452634 -838.75 16711680
-59.310754751440314 53.04460390320477 -851.5 16711680
-55.61631379890952 50.33977429081177 -860.75 16711680
-52.92037040111678 48.46985101222168 -867.5 16711680
-51.02322504711448 47.28205513678632 -872.25 16711680
-49.72517822595501 46.61500025742575 -875.5 16711680
-48.72668067121696 46.204012137886686 -878 16711680
-48.027732382900325 46.05877418915486 -879.75 16711680
-47.32878409458368 45.89847315666747 -881.5 16711680
-46.72968556174085 45.82101719682799 -883 16711680
-46.030737273424215 45.63166593138343 -884.75 16711680
-45.431638740581384 45.52731160769472 -886.25 16711680
-45.032239718686164 45.61231798948915 -887.25 16711680
-44.63284069679094 45.68871689485182 -888.25 16711680
-44.33329143036953 45.85979615295607 -889 16711680
-44.03374216394811 46.02441980373651 -889.75 16711680
-43.8340426530005 46.28802754547439 -890.25 16711680
-43.534493386579086 46.440815916161164 -891 16711680
-43.334793875631476 46.69474024691332 -891.5 16711680
-43.135094364683866 46.9443608394496 -892 16711680
-42.935394853736256 47.18967769377001 -892.5 16711680
-42.83554509826245 47.54151018092564 -892.75 16711680
-42.63584558731484 47.77929549336827 -893.25 16711680
-42.535995831841035 48.12574830775406 -893.5 16711680
-42.43614607636723 48.47004925303191 -893.75 16711680
-42.23644656541962 48.69707521993484 -894.25 16711680
-42.03674705447201 48.91979744862189 -894.75 16711680
-41.8370475435244 49.138215939093065 -895.25 16711680
-41.737197788050594 49.47068160427726 -895.5 16711680
-41.63734803257679 49.800995400353514 -895.75 16711680
-41.53749827710298 50.12915732732183 -896 16711680
-41.43764852162918 50.45516738518221 -896.25 16711680
-41.13809925520776 50.533716271645105 -897 16711680
-40.83854998878635 50.60580955078419 -897.75 16711680
-156.84722521999717 -210.15883897572922 -603 16752480
-154.97058965376294 -205.95620273577902 -607.75 16742280
-154.97058965376294 -204.26806142060138 -607.75 16742280
-153.68657584528688 -200.9014376571315 -611 16742280
-153.3902649664078 -198.84316919136532 -611.75 16742280
-153.68657584528688 -197.5531293251794 -611 16742280
-153.88411643120628 -196.13074762084761 -610.5 16742280
-153.78534613824658 -194.3296312894955 -610.75 16742280
-153.09395408752872 -191.7882606569663 -612.5 16742280
-152.50133232977055 -189.38461153535283 -614 16742280
-152.30379174385115 -187.48020359881195 -614.5 16742280
-152.69887291568992 -186.30313874880054 -613.5 16742280
-153.58780555232718 -185.71461953984885 -611.25 16742280
-154.18042731008538 -184.75166944209275 -609.75 16742280
-154.27919760304508 -183.1894143577372 -609.5 16742280
-153.58780555232718 -180.69538484558265 -611.25 16742280
-152.50133232977055 -177.75591087605397 -614 16742280
-151.41485910721389 -174.84010746671262 -616.75 16742280
-150.32838588465722 -171.9479746175586 -619.5 16742280
-149.83453441985876 -169.75090681831495 -620.75 16742280
-149.73576412689906 -168.00789095287718 -621 16742280
-149.53822354097966 -166.15727974403475 -621.5 16742280
-149.34068295506026 -164.31097227340823 -622 16742280
-149.14314236914086 -162.46896854099757 -622.5 16742280
-149.34068295506026 -161.05734618220544 -622 16742280
-149.93330471281845 -160.0631939823842 -620.5 16742280
-150.72346705649602 -159.2648656474008 -618.5 16742280
-151.41485910721389 -158.34603075436516 -616.75 16742280
-151.71116998609295 -157.00327009503476 -616 16742280
-151.51362940017358 -155.14835514797647 -616.5 16742280
-151.1185482283348 -153.09761633608036 -617.5 16742280
-150.82223734945572 -151.15447286758888 -618.25 16742280
-150.72346705649602 -149.41360887125902 -618.5 16742280
-150.72346705649602 -147.77173274190207 -618.5 16742280
-150.82223734945572 -146.22561667585606 -618.25 16742280
-150.9210076424154 -144.67734874070214 -618 16742280
-150.9210076424154 -143.03332074223724 -618 16742280
-150.72346705649602 -141.2042282244742 -618.5 16742280
-150.42715617761692 -139.28798311983195 -619.25 16742280
-150.13084529873782 -137.37819362251352 -620 16742280
-150.03207500577813 -135.65346864449322 -620.25 16742280
-150.42715617761692 -134.3720381427468 -619.25 16742280
-151.1185482283348 -133.34345792520628 -617.5 16742280
-152.60010262273022 -132.98842784251218 -613.75 16742280
-152.50133232977055 -131.24110823885852 -614 16742280
-151.71116998609295 -128.90846702179164 -616 16742280
-150.62469676353632 -126.34449421159819 -618.75 16742280
-149.53822354097966 -123.80419196159208 -621.5 16742280
-148.8468314902618 -121.61034818999492 -623.25 16742280
-148.5505206113827 -119.75005168215907 -624 16742280
-148.5505206113827 -118.13184611298942 -624 16742280
-148.451750318423 -116.43617136792628 -624.25 16742280
-148.2542097325036 -114.66625525063155 -624.75 16742280
-148.15543943954393 -112.97596017833825 -625 16742280
-150.03207500577813 -112.7726444197847 -620.25 16742280
-150.32838588465722 -111.35779614533838 -619.5 16742280
-150.72346705649602 -110.0085817666919 -618.5 16742280
-151.1185482283348 -108.65075991161366 -617.5 16742280
-151.3160888142542 -107.14445531207225 -617 16742280
-151.3160888142542 -105.49612357539147 -617 16742280
-151.0197779353751 -103.64443454398737 -617.75 16742280
-150.32838588465722 -101.53236179849186 -619.5 16742280
-149.53822354097966 -99.36971824095208 -621.5 16742280
-148.7480611973021 -97.22428963627581 -623.5 16742280
-148.05666914658423 -95.15955801115494 -625.25 16742280
-147.76035826770513 -93.35951383834136 -626 16742280
-147.76035826770513 -91.74991574560347 -626 16742280
-147.76035826770513 -90.14031765286558 -626 16742280
-147.56281768178573 -88.41236298317565 -626.5 16742280
-146.97019592402756 -86.45630263601339 -628 16742280
-146.0812632873903 -84.3420742453945 -630.25 16742280
-145.38987123667243 -82.35911364637529 -632 16742280
-145.19233065075304 -80.66558888241238 -632.5 16742280
-145.38987123667243 -79.19156231949005 -632 16742280
-145.9824929944306 -77.92412274296065 -630.5 16742280
-146.57511475218877 -76.64377195178363 -629 16742280
-146.87142563106786 -75.19879750982618 -628.25 16742280
-146.67388504514847 -73.49989307309342 -628.75 16742280
-146.0812632873903 -71.6116166028312 -630.25 16742280
-145.48864152963213 -69.73625134721664 -631.75 16742280
-145.09356035779334 -67.96633145390648 -632.75 16742280
-144.89601977187394 -66.29540131557691 -633.25 16742280
-144.69847918595457 -64.62877491546323 -633.75 16742280
-144.20462772115607 -62.837334443065956 -635 16742280
-143.6120059633979 -61.014689980595875 -636.5 16742280
-143.01938420563974 -59.20495673277342 -638 16742280
-142.82184361972034 -57.5673805656169 -638.5 16742280
-142.82184361972034 -56.01157920057747 -638.5 16742280
-142.92061391268004 -54.49343743293468 -638.25 16742280
-142.82184361972034 -52.899976470498615 -638.5 16742280
-142.82184361972034 -51.34417510545918 -638.5 16742280
-142.72307332676064 -49.753941946685025 -638.75 16742280
-142.62430303380094 -48.165860657018804 -639 16742280
-142.62430303380094 -46.61221116108731 -639 16742280
-142.72307332676064 -45.089765655228646 -638.75 16742280
-142.62430303380094 -43.50491216922433 -639 16742280
-142.42676244788154 -41.89315843136307 -639.5 16742280
-142.03168127604278 -40.22975605889586 -640.5 16732080
-141.73537039716368 -38.60186141471735 -641.25 16732080
-141.63660010420398 -37.0320710124686 -641.5 16732080
-141.63660010420398 -35.4891808620768 -641.5 16732080
-141.53782981124428 -33.922618263489966 -641.75 16732080
-141.0439783464458 -32.26782147944679 -643 16732080
-140.35258629572795 -30.580742882769105 -644.75 16732080
-139.46365365909068 -28.867838080780725 -647 16732080
-138.67349131541312 -27.193668810742956 -649 16732080
-138.08086955765492 -25.573300044419078 -650.5 16732080
-137.78455867877585 -24.017493015356496 -651.25 16732080
-137.58701809285645 -22.484282499934988 -651.75 16732080
-137.58701809285645 -20.985505666255925 -651.75 16732080
-137.68578838581615 -19.500717869786175 -651.5 16732080
-137.88332897173552 -18.02669130686384 -651 16732080
-138.47595072949372 -16.595709678131133 -649.5 16732080
-139.06857248725188 -15.151816834750795 -648 16732080
-139.46365365909068 -13.67564217873595 -647 16732080
-139.26611307317128 -12.139203859652534 -647.5 16732080
-138.67349131541312 -10.57693555924299 -649 16732080
-137.88332897173552 -9.014663482818014 -651 16732080
-137.29070721397736 -7.480369480811669 -652.5 16732080
-137.19193692101766 -5.98051482457092 -652.75 16732080
-137.29070721397736 -4.489271420777357 -652.5 16732080
-137.38947750693706 -2.9958761478758564 -652.25 16732080
-137.19193692101766 -1.4970955381813607 -652.75 16732080
-136.8956260421386 -0.0026167786950248273 -653.5 16732080
-136.6980854562192 1.4864804200137487 -654 16732080
-136.5005448702998 2.971273880506645 -654.5 16732080
-136.4017745773401 4.4549895184378565 -654.75 16732080
-136.2042339914207 5.932251437052969 -655.25 16732080
-135.90792311254162 7.399831832690075 -656 16732080
-135.51284194070283 8.854502901687267 -657 16732080
-134.72267959702526 10.270447878772437 -659 16732080
-133.43866578854923 11.626149960873914 -662.25 16732080
-132.15465198007317 12.95387774457219 -665.5 16732080
-132.54973315191197 14.43650800791085 -664.5 16732080
-133.6362063744686 16.010579492282876 -661.75 16732080
-134.2288281322268 17.543774903642653 -660.25 16732080
-134.0312875463074 18.977999440098998 -660.75 16732080
-133.24112520262983 20.317553063852355 -662.75 16732080
-132.45096285895227 21.639891734742204 -664.75 16732080
-131.85834110119407 22.979441582480128 -666.25 16732080
-131.4632599293553 24.342658214389942 -667.25 16732080
-131.2657193434359 25.73599723779546 -667.75 16732080
-131.2657193434359 27.165914260020493 -667.75 16732080
-131.4632599293553 28.638864888388863 -667.25 16732080
-131.85834110119407 30.161304730224384 -666.25 16732080
-132.05588168711347 31.645014704132446 -665.75 16732080
-131.95711139415377 33.05879459605566 -666 16732080
-131.562030222315 34.3929609950083 -667 16732080
-131.0681787575165 35.69162344168768 -668.25 16732080
-130.77186787863744 37.035471363618335 -669 16732080
-130.37678670679864 38.34381533327572 -670 16732080
-129.98170553495987 39.64355182650135 -671 16732080
-129.48785407016138 40.90348062923784 -672.25 16732080
-128.8952323124032 42.120373937823274 -673.75 16732080
-128.4013808476047 43.35770811492641 -675 16732080
-127.90752938280625 44.58428294648985 -676.25 16721880
-127.41367791800776 45.8000984325136 -677.5 16721880
-127.01859674616898 47.0417344598249 -678.5 16721880
-126.8210561602496 48.35007465346685 -679 16721880
-127.01859674616898 49.809038132633624 -678.5 16721880
-127.11736703912868 51.23249765952713 -678.25 16721880
-126.8210561602496 52.49457455535612 -679 16721880
-126.12966410953172 53.58235760547297 -680.75 16721880
-125.33950176585415 54.612042077683206 -682.75 16721880
-124.54933942217659 55.62451159702994 -684.75 16721880
-124.0554879573781 56.75532825329012 -686 16721880
-123.75917707849902 57.96791215963653 -686.75 16721880
-123.66040678553932 59.26871892339298 -687 16721880
-123.66040678553932 60.61578898496239 -687 16721880
-123.75917707849902 62.01235014800667 -686.75 16721880
-123.56163649257962 63.25936207207238 -687.25 16721880
-123.16655532074084 64.3987843167566 -688.25 16721880
-122.77147414890206 65.52959908500907 -689.25 16721880
-122.37639297706328 66.65180637682978 -690.25 16721880
-121.9813118052245 67.76540619221875 -691.25 16721880
-121.7837712193051 68.98229194877332 -691.75 16721880
-121.48746034042601 70.13785132375936 -692.5 16721880
-121.09237916858723 71.22885651351498 -693.5 16721880
-120.40098711786935 72.13373068945707 -695.25 16721880
-119.70959506715148 73.0235417816436 -697 16721880
-119.1169733093933 73.95961617164308 -698.5 16721880
-118.82066243051422 75.06998629536243 -699.25 16721880
-118.72189213755452 76.30085731311087 -699.5 16721880
-118.82066243051422 77.65868483221226 -699.25 16721880
-118.72189213755452 78.88740398085278 -699.5 16721880
-118.12927037979635 79.78044098869348 -701 16721880
-117.24033774315909 80.45722081520955 -703.25 16721880
-116.25263481356212 81.04577589630786 -705.75 16721880
-115.66001305580394 81.89254771832789 -707.25 16721880
-115.06739129804578 82.7264083257003 -708.75 16721880
-114.5735398332473 83.6194434455333 -710 16721880
-113.98091807548911 84.42855755816443 -711.5 16711680
-113.09198543885185 85.00204766749944 -713.75 16711680
-112.20305280221459 85.55617095486302 -716 16711680
-111.01780928669824 85.86175902428286 -719 16711680
-109.43748459934311 85.8316630648952 -723 16711680
-107.1657678612701 85.21734785875627 -728.75 16711680
-104.20265907247922 83.99621878023275 -736.25 16711680
-100.44938794001078 82.0649880001513 -745.75 16711680
-95.70841387794538 79.23429481302878 -757.75 16711680
-90.17727747220239 75.63755132754196 -771.75 16711680
-84.15228960166094 71.50069813600118 -787 16711680
-77.7322205592807 66.89259316185276 -803.25 16711680
-71.21338122394077 62.058543819378535 -819.75 16711680
-65.08962306043962 57.43106635923553 -835.25 16711680
-59.85479753357574 53.464195723160145 -848.5 16711680
-55.9039858151879 50.54418486399646 -858.5 16711680
-52.940877026397025 48.44186538577218 -866 16711680
-50.965471167203106 47.18951532510639 -871 16711680
-49.48391677280767 46.356770300449995 -874.75 16711680
-48.39744355025101 45.86616491192493 -877.5 16711680
-47.60728120657345 45.63593002143726 -879.5 16711680
-47.014659448815266 45.579992752677164 -881 16711680
-46.52080798401679 45.60797649111894 -882.25 16711680
-46.02695651921831 45.625200884021034 -883.5 16711680
-45.434334761460136 45.53268184042598 -885 16711680
-44.84171300370196 45.4272515821833 -886.5 16711680
-44.34786153890348 45.41004606935837 -887.75 16711680
-43.9527803670647 45.48429310561311 -888.75 16711680
-43.65646948818561 45.65322049460943 -889.5 16711680
-43.458928902266216 45.920056040009214 -890 16711680
-43.261388316346824 46.182587847193126 -890.5 16711680
-42.965077437467734 46.33430028332593 -891.25 16711680
-42.56999626562895 46.37196554474571 -892.25 16711680
-42.27368538674986 46.50969083167692 -893 16711680
-42.17491509379017 46.86044738427859 -893.25 16711680
-42.17491509379017 47.31987143882343 -893.25 16711680
-42.17491509379017 47.77929549336827 -893.25 16711680
-42.17491509379017 48.23871954791311 -893.25 16711680
-42.07614480083047 48.584096427744925 -893.5 16711680
-41.87860421491108 48.81219832920183 -894 16711680
-41.582293336031995 48.91979744862189 -894.75 16711680
-41.285982457152905 49.02094096071814 -895.5 16711680
-41.187212164193205 49.352330691348364 -895.75 16711680
-41.187212164193205 49.800995400353514 -895.75 16711680
-41.187212164193205 50.24966010935866 -895.75 16711680
-41.187212164193205 50.69832481836381 -895.75 16711680
-41.285982457152905 51.26964417851372 -895.5 16711680
-41.285982457152905 51.71938482207284 -895.5 16711680
-149.8577339035299 -203.01237971584928 -616.5 16742280
-149.8577339035299 -201.36189611006054 -616.5 16742280
-149.56466141219312 -199.32084259715788 -617.25 16742280
-149.66235224263872 -197.8027008295151 -617 16742280
-150.24849722531224 -196.9225976924146 -615.5 16742280
-150.93233303843135 -196.15654550604256 -613.75 16742280
-151.42078719065927 -195.12365777427073 -612.5 16742280
-151.51847802110487 -193.58076951188664 -612.25 16742280
-151.2254055297681 -191.54079193353795 -613 16742280
-150.83464220798575 -189.38461153535283 -614 16742280
-150.541569716649 -187.35862110620573 -614.75 16742280
-150.541569716649 -185.70060595853923 -614.75 16742280
-150.93233303843135 -184.5203133048659 -613.75 16742280
-151.51847802110487 -183.5681225526495 -612.25 16742280
-151.8115505124416 -182.25118432261436 -611.5 16742280
-151.71385968199604 -180.46297920590987 -611.75 16742280
-151.3230963602137 -178.33154530246608 -612.75 16742280
-149.7600430730843 -174.84010746671262 -616.75 16742280
-149.27158892085637 -172.62582471460547 -618 16742280
-149.36927975130195 -171.0936957977611 -617.75 16742280
-149.46697058174755 -169.55941501180877 -617.5 16742280
-149.36927975130195 -167.80348793172334 -617.75 16742280
-148.88082559907403 -165.61502760891145 -619 16742280
-148.49006227729168 -163.5449219750439 -620 16742280
-148.39237144684608 -161.80298204416007 -620.25 16742280
-148.68544393818286 -160.484967879571 -619.5 16742280
-149.46697058174755 -159.68233580637173 -617.5 16742280
-150.05311556442106 -158.6559055699314 -616 16742280
-150.24849722531224 -157.20770143630435 -615.5 16742280
-149.8577339035299 -155.14835514797647 -616.5 16742280
-149.46697058174755 -153.09761633608036 -617.5 16742280
-149.46697058174755 -151.45143646850752 -617.5 16742280
-150.05311556442106 -150.39272819544814 -616 16742280
-151.12771469932252 -149.80528869706586 -613.25 16742280
-151.8115505124416 -148.81113838525235 -611.5 16742280
-151.71385968199604 -147.04445195962725 -611.75 16742280
-151.12771469932252 -144.8118764320949 -613.25 16742280
-150.34618805575784 -142.40714759991207 -615.25 16742280
-149.8577339035299 -140.29400269587802 -616.5 16742280
-149.95542473397546 -138.73389948063044 -616.25 16742280
-150.34618805575784 -137.43955776423638 -615.25 16742280
-150.73695137754018 -136.13660857141056 -614.25 16742280
-151.2254055297681 -134.91220448903223 -613 16742280
-151.2254055297681 -133.24665779948793 -613 16742280
-150.83464220798575 -131.24110823885852 -614 16742280
-150.24849722531224 -129.07631658822623 -615.5 16742280
-149.66235224263872 -126.9244361522416 -617 16742280
-149.27158892085637 -124.94901275912332 -618 16742280
-149.27158892085637 -123.30498476065841 -618 16742280
-149.56466141219312 -121.89981989719783 -617.25 16742280
-149.7600430730843 -120.40965431596595 -616.75 16742280
-149.95542473397546 -118.91518499651819 -616.25 16742280
-149.36927975130195 -116.80526600813833 -617.75 16742280
-148.78313476862843 -114.70825823440612 -619.25 16742280
-148.68544393818286 -112.99536853647948 -619.5 16742280
-148.78313476862843 -111.430961583016 -619.25 16742280
-149.0762072599652 -110.0085817666919 -618.5 16742280
-149.36927975130195 -108.57974634304398 -617.75 16742280
-149.46697058174755 -107.00458004404082 -617.5 16742280
-149.36927975130195 -105.28953847700625 -617.75 16742280
-149.17389809041077 -103.50886301417182 -618.25 16742280
-148.88082559907403 -101.66578145919947 -619 16742280
-148.58775310773726 -99.82915551155094 -619.75 16742280
-148.2946806164005 -97.99898517122622 -620.5 16742280
-147.90391729461817 -96.11178841153341 -621.5 16742280
-147.41546314239022 -94.17079303613443 -622.75 16742280
-147.02469982060788 -92.3018871638591 -623.75 16742280
-146.34086400748876 -90.26082609892556 -625.5 16742280
-145.3639557030329 -88.05729325231952 -628 16742280
-144.28935656813144 -85.81717674287081 -630.75 16742280
-143.41013909412118 -83.7147836323456 -633 16742280
-143.01937577233883 -81.91150976786238 -634 16742280
-143.01937577233883 -80.33634158085151 -634 16742280
-143.41013909412118 -78.97636785666533 -633 16742280
-143.9962840767947 -77.71323201835183 -631.5 16742280
-144.77781072035938 -76.54047845858716 -629.5 16742280
-145.3639557030329 -75.24936832187043 -628 16742280
-145.75471902481524 -73.8463572155255 -627 16742280
-145.65702819436967 -72.19264391806716 -627.25 16742280
-145.07088321169616 -70.30436744780495 -628.75 16742280
-144.28935656813144 -68.3364680445336 -630.75 16742280
-143.60552075501235 -66.43097473340018 -632.5 16742280
-142.92168494189323 -64.54054450602231 -634.25 16742280
-142.43323078966532 -62.75125590273299 -635.5 16742280
-142.14015829832854 -61.05665331620839 -636.25 16742280
-142.04246746788297 -59.45028113912469 -636.5 16742280
-142.14015829832854 -57.92568376415809 -636.25 16742280
-142.43323078966532 -56.47640558398475 -635.5 16742280
-142.82399411144766 -55.058331393884245 -634.5 16742280
-143.1170666027844 -53.59506606450931 -633.75 16742280
-143.21475743323 -52.05432967123317 -633.5 16742280
-143.41013909412118 -50.54587320258381 -633 16742280
-143.41013909412118 -48.966401277357065 -633 16742280
-143.21475743323 -47.322369502876725 -633.5 16742280
-142.6286124505565 -45.55782550632099 -635 16742280
-141.7493949765462 -43.715808557856306 -637.25 16742280
-140.67479584164474 -41.83505418943331 -640 16732080
-139.79557836763448 -40.03392275401946 -642.25 16732080
-139.5025058762977 -38.41355965171873 -643 16732080
-139.79557836763448 -36.95459806055967 -642.25 16732080
-140.381723350308 -35.56342601032382 -640.75 16732080
-140.77248667209034 -34.11199784905027 -639.75 16732080
-140.77248667209034 -32.56157615678069 -639.75 16732080
-140.18634168941682 -30.882030989988504 -641.25 16732080
-139.40481504585213 -29.17450774877769 -643.25 16732080
-138.62328840228741 -27.48419946043038 -645.25 16732080
-138.0371434196139 -25.847691675796963 -646.75 16732080
-137.54868926738598 -24.2413119466824 -648 16732080
-137.15792594560364 -22.661832469424784 -649 16732080
-136.96254428471246 -21.12109041212549 -649.5 16732080
-137.06023511515804 -19.626619204670018 -649.25 16732080
-137.54868926738598 -18.181648538728 -648 16732080
-138.1348342500595 -16.737755695347662 -646.5 16732080
-138.62328840228741 -15.270190403772286 -645.25 16732080
-138.72097923273301 -13.753124570683463 -645 16732080
-138.33021591095067 -12.190860046289353 -646 16732080
-137.45099843694038 -10.599535848899492 -648.25 16732080
-136.57178096293012 -9.027578473481077 -650.5 16732080
-135.98563598025657 -7.491132602366794 -652 16732080
-135.98563598025657 -5.9934317032417 -652 16732080
-136.37639930203895 -4.508649570795101 -651 16732080
-136.6694717933757 -3.013106204801095 -650.25 16732080
-136.6694717933757 -1.5078737637982171 -650.25 16732080
-136.47409013248452 -0.0026375467799059768 -650.75 16732080
-136.27870847159335 1.4982949320225285 -651.25 16732080
-136.18101764114778 2.997073653709308 -651.5 16732080
-135.98563598025657 4.490474590633958 -652 16732080
-135.69256348891983 5.975269939134571 -652.75 16732080
-135.1064185062463 7.437476326024981 -654.25 16732080
-134.12951020179045 8.860956621003366 -656.75 16732080
-132.46876608421547 10.210210647811895 -661 16732080
-130.22187698396698 11.471249369241248 -666.75 16732080
-128.17036954460966 12.702158147144033 -672 16732080
-128.6588236968376 14.167571569611468 -670.75 16732080
-130.8080219666405 15.844912003079653 -665.25 16732080
-132.56645691466105 17.517956250362825 -660.75 16732080
-133.34798355822574 19.08988152965006 -658.75 16732080
-133.25029272778016 20.543471000070134 -659 16732080
-132.66414774510665 21.914222949873164 -660.5 16732080
-131.98031193198753 23.254850620172775 -662.25 16732080
-131.394166949314 24.598704206126577 -663.75 16732080
-131.00340362753167 25.968376445360203 -664.75 16732080
-130.8080219666405 27.370322945197472 -665.25 16732080
-130.8080219666405 28.810999312962203 -665.25 16732080
-130.8080219666405 30.25167568072693 -665.25 16732080
-130.8080219666405 31.692352048491657 -665.25 16732080
-130.61264030574932 33.08353920278923 -665.75 16732080
-130.41725864485815 34.470422618870934 -666.25 16732080
-130.22187698396698 35.85300229673676 -666.75 16732080
-129.9288044926302 37.20330582599123 -667.5 16732080
-129.73342283173903 38.57620209287133 -668 16732080
-129.4403503404023 39.91467034203213 -668.75 16732080
-129.04958701861995 41.215482769811736 -669.75 16732080
-128.6588236968376 42.50768772115958 -670.75 16732080
-128.26806037505526 43.79128519607567 -671.75 16732080
-127.77960622282731 45.031847176840714 -673 16732080
-127.1934612401538 46.2261458597928 -674.5 16732080
-126.60731625748028 47.40753332809725 -676 16721880
-126.41193459658909 48.7266328672789 -676.5 16721880
-126.41193459658909 50.11889218011501 -676.5 16721880
-126.41193459658909 51.51115149295113 -676.5 16721880
-126.02117127480675 52.73987630561479 -677.5 16721880
-125.14195380079647 53.7501958438613 -679.75 16721880
-124.16504549634061 54.69811306598531 -682.25 16721880
-123.28582802233032 55.66862302573495 -684.5 16721880
-122.89506470054798 56.845702979808095 -685.5 16721880
-122.79737387010239 58.152965350888365 -685.75 16721880
-122.6996830396568 59.458075852860695 -686 16721880
-122.60199220921122 60.761034485725084 -686.25 16721880
-122.30891971787446 61.962859046531804 -687 16721880
-122.11353805698329 63.20879503604354 -687.5 16721880
-121.91815639609212 64.45042728733941 -688 16721880
-121.62508390475536 65.63503689528261 -688.75 16721880
-121.3320114134186 66.81319089590201 -689.5 16721880
-121.13662975252743 68.03976006344232 -690 16721880
-120.94124809163625 69.26202549276672 -690.5 16721880
-120.64817560029948 70.42296454052261 -691.25 16721880
-120.25741227851714 71.51934940304808 -692.25 16721880
-119.7689581262892 72.54795227668119 -693.5 16721880
-119.37819480450686 73.62604625178918 -694.5 16721880
-118.88974065227893 74.63420636889687 -695.75 16721880
-118.401286500051 75.63160714046488 -697 16721880
-117.81514151737747 76.55477031581674 -698.5 16721880
-117.13130570425837 77.40046809129052 -700.25 16721880
-116.54516072158485 78.29673290279314 -701.75 16721880
-116.05670656935692 79.24679255398651 -703 16721880
-115.76363407802016 80.32165683742487 -703.75 16721880
-115.4705615866834 81.39006551353941 -704.5 16721880
-115.27517992579222 82.52195244033041 -705 16721880
-114.98210743445546 83.5785258363513 -705.75 16721880
